# 3D point list with one line of data per point:
#   POINT3D_ID, X, Y, Z, R, G, B, ERROR, TRACK[] as (IMAGE_ID, POINT2D_IDX)
# Number of points: 342, mean track length: 2.5146198830409356
344 24.84753922005763 -16.365034693027692 47.078434214241653 120 138 148 1.6553441351999503 2 4200 4 4160
343 28.400111073730635 -11.864952444557952 46.009016122466441 114 82 86 1.31583159185061 2 4214 4 4113
341 7.1975192382644817 -12.62432069596673 48.309069590185238 39 62 97 0.34984363766770415 1 346 3 354 4 2276
340 26.295478728575873 -12.104148945623391 48.248109162288657 120 137 150 0.42442709485026597 1 2019 2 2885 4 2244
339 0.48987961087424803 2.6193049982915433 20.570730842227832 60 55 79 0.26074239546146311 1 1659 2 844 4 1894
338 3.6989755315705786 0.57821297417087603 16.754751759865858 137 105 119 0.19559986939149218 2 1771 4 608
337 25.761723426532733 -13.876845386801254 47.817990947164525 148 170 186 0.85645356561652963 2 4250 1 4260 4 4205
336 25.761723426532733 -13.876845386801254 47.817990947164525 148 170 186 0.85645356561652963 2 4251 1 4259 4 4204
335 -0.056933473346842199 2.1546390947613072 20.62025867185654 139 159 166 0.74204068999687789 2 4182 1 4250
334 31.540939886193232 -8.4705042008133251 49.112477823642735 155 177 185 0.68199042012365307 2 4261 1 4240 4 4171
333 -0.21785406954909947 3.4030609676513777 21.210008196946191 86 96 100 1.710421448483797 2 4186 1 4227 4 4198
332 30.401983386350604 -9.3404301420170288 48.807369598570432 117 66 60 0.19329841928174615 2 4224 1 4196 4 4121
331 31.711865760137108 -10.853867724895425 47.560665333163726 117 128 133 1.1863311688851057 2 4218 1 4186 4 4118
330 32.626480907849768 -8.8464533532333345 48.475954110295184 118 65 69 0.50039610590054773 2 4174 1 4123 4 4053
329 31.041346541880436 -10.446444367312647 48.154998045621575 113 66 61 0.19162393793248966 2 4167 1 4121 4 4052
328 0.54396847651391655 2.6933113687122194 20.479220405329322 108 117 127 0.47785880949913456 2 4036 1 4089 4 4017
327 0.69760672710977534 2.5452444936067908 20.543767073151152 40 36 56 0.22253440001767225 2 3914 1 4088 4 4015
326 29.784452904574117 -9.8896651933441753 48.593124482717883 118 133 139 2.203450476382196 2 4114 3 4335 1 4052
325 0.42526258259806105 -3.7654256609501746 15.013046203694875 65 44 67 0.93830221939574943 2 3581 1 3868 4 3826
324 2.0451957022901146 4.3738299001345853 18.811831459990092 105 115 121 0.05250372998777797 2 3702 1 3750 4 3750
323 0.62166215797697799 2.2657849671166419 20.62850861323226 64 71 89 1.3863241380384193 2 3425 1 3724 4 3895
322 31.822890359162734 -8.8814536647428977 49.207092327380309 115 125 129 0.47799943268146788 2 3879 1 3643 4 3623
321 7.7307955767907384 -13.309300195260361 48.056312583478878 133 157 160 1.4376900851672161 2 3843 1 3636 4 3954
320 1.6428924750513934 4.3597561927610977 18.767939932814443 59 58 75 0.92336015889202672 2 3171 1 3272 4 3183
319 2.3414182533070518 4.1189177504315992 18.711183814505773 44 35 60 0.274426313864296 3 3201 1 3261 4 3159
318 2.3414182533070518 4.1189177504315992 18.711183814505773 44 35 60 0.274426313864296 3 3200 1 3260 4 3158
317 0.51732283846587601 2.3894591501625797 20.637928975499111 106 115 126 0.2327653414526567 2 3429 1 3233 4 3737
316 -7.3071026521487816 -2.0735035376774289 29.647178439654159 141 160 170 0.4565608476388423 2 2424 3 2408 1 3198
315 2.5264276942598722 0.52862034750493736 16.414062884449073 73 89 100 0.46453138686725248 2 3390 1 3185 4 3452
314 2.3075642362478312 4.0437822011427951 18.731229438036351 40 30 64 0.25348684919343828 2 3158 1 2887 4 3156
313 2.9967028810694982 3.8903003704853623 18.971180902031563 136 148 156 1.4136569328708806 2 3149 3 3913 1 2869
312 0.76554788746517155 2.2955267890330999 20.571040259251372 93 103 111 0.21209048514456277 2 2596 1 2845 4 3140
311 3.6195973658117273 0.64833841121223912 16.752489918887747 155 163 171 1.5034067239554689 2 3040 1 2787 4 3696
310 7.6813842764159252 -13.474518323965851 48.270193221150294 133 156 158 0.27386102607749468 3 2982 1 2650 4 2885
309 27.016721071593679 -12.254013817628209 48.436670717265955 118 134 141 0.11818885089672106 2 3321 1 2601 4 3323
308 32.343806146633959 -11.237657469881764 47.502433092048598 113 128 133 0.36324891803175413 2 2903 1 2598 4 2851
307 66.257326924226092 -21.295689408867645 79.956895829652851 96 116 123 0.46941832664091221 2 3323 1 2558 4 2839
306 13.396049797771616 0.88494647628902867 28.629030675327293 134 47 87 0.34065660976218154 2 3067 1 2261 4 2441
305 10.355587489799367 -6.1652290608420763 40.983168196085359 140 157 160 0.16434741401619926 2 1516 1 2151 4 2359
304 28.073817371739459 -11.693754958511832 48.255553569384055 125 138 144 0.51775662311322102 3 3562 1 2021 4 3326
303 8.5716898490382931 -3.3973810609161577 10.857537226054347 107 81 94 0.15134707608493331 3 2894 1 1931
302 8.5716898490382931 -3.3973810609161577 10.857537226054347 107 81 94 0.15134707608493331 3 2893 1 1930
301 2.8798185160570471 4.7666247824036194 19.074143747417533 98 108 114 0.48112427397589769 2 2657 1 1748 4 2655
300 2.5478446432513397 4.2352451598468743 18.698583973526002 53 50 72 0.67229485670026656 3 1985 1 1727 4 891
299 2.8011942077960073 4.0503570545752154 18.826330502610933 51 52 68 2.0286240345046016 2 907 3 1977 1 1701 4 1898
298 24.444598962682061 -10.286038989310885 49.430241647812828 152 177 189 0.16505042316444551 2 1449 1 1271 4 1312
297 2.042418082546622 5.176221018306939 18.090266428122284 98 110 119 0.26590866658019535 2 957 1 867 4 1985
296 2.5619377045494454 0.52361573583925691 16.407766292196268 87 96 105 0.33839691944500161 2 741 1 614 4 1703
295 25.379815953728588 -9.1038563634432332 49.66561710083689 109 121 128 0.059351471680611723 2 2332 3 1568 1 364
294 -0.072647601836435968 -0.21241683509640452 17.678711042120078 101 83 94 0.84132041171925953 2 4265 3 4378
293 8.4572228470168227 -9.3141227704308278 48.145335398897785 151 172 179 0.83760199719849204 2 4258 3 4394
292 1.1186453047021196 4.8195788418540628 18.819862046251547 126 142 148 2.072537779886952 2 4234 3 4349
291 0.64135442020527134 4.2904282434784387 19.641993584085942 133 150 156 3.0465620676757332 2 4232 3 4298
290 27.306003179256653 -8.2114309954497724 49.688322097910756 127 139 146 1.7976485766604824 2 4226 3 4376 1 4133
289 27.703811849847988 -9.9206348197569536 49.088914738784943 132 73 73 1.5098650318637181 2 4223 3 4393 1 4195 4 4122
287 8.089692569303546 -12.893030507913762 47.661507153529932 161 187 194 0.78999129475491703 2 4210 3 4325
286 10.115307798845853 -14.244355361708273 48.621143798880865 161 184 188 1.5995456585924843 2 4207 3 4366
285 1.0636854900706989 -4.199815044122631 15.942297778234476 145 169 177 2.3194353912431418 2 4205 3 4364
284 1.0636854900706989 -4.199815044122631 15.942297778234476 145 169 177 2.3194353912431418 2 4204 3 4363
283 -5.6202553231446322 5.2666307008399995 15.437931744972316 110 136 109 0.91231884733556279 2 4189 3 4302
282 -0.41943521874115175 2.4636583983380596 20.655017981292872 51 46 66 0.83249953633817286 2 4184 3 4343 1 4221 4 4192
281 19.594074413988238 -9.8837565226276851 49.898871913929014 133 148 156 0.55200437977952899 2 4171 3 4336 1 4199
280 17.624964595918886 -10.614668144225488 51.230001220371193 116 111 115 0.70616812127256756 2 4168 3 4333 1 4198
279 28.192634928137565 -11.474111042327532 47.679081386194362 130 147 156 0.99822376943635871 2 4160 3 4372 1 4184 4 4167
278 28.367440564318816 -11.611318775775366 48.098633153788157 130 147 156 0.71936638691801591 2 4159 3 4371
277 0.67602057777812874 -3.5716890993483599 15.341946472822794 105 91 97 0.48031875943645963 2 4154 3 4192 1 4201 4 4172
276 5.7550380638692706 -13.902006498823276 47.162798144433104 61 62 80 1.7817446750410735 2 4152 3 4321
275 -1.6751618492310698 -17.670479321091772 54.620585592105002 140 76 76 0.12874623622853554 2 4149 3 4319
274 27.783504721375003 -18.903190185632447 44.616759020518288 147 181 189 1.5748490874142307 2 4145 3 4353
273 -0.27511660150489009 6.7632996577569298 14.588970069974696 142 161 170 0.9123748054964993 2 4142 3 3960
272 0.46507394504518768 6.1591317213985572 16.037022301570708 112 138 105 0.65415680816276878 2 4139 3 4238
271 2.9942628814391301 4.312710133899051 19.090094660823407 51 47 71 1.417715936393509 2 4136 3 4299 1 4160
270 0.28704436077191808 3.4540376835949398 20.993222537402747 74 85 76 0.82484624455549238 2 4135 3 4296 1 4225
269 -4.3155906718111723 1.5371177794505395 23.398711504175385 166 192 199 0.20517910296479985 2 4125 3 4218
268 28.668100689117718 -10.254531747479312 49.298244081782542 146 166 173 0.23590815037987736 2 4113 3 4334 1 4050
267 13.445948400477601 -11.794238827544881 50.424536546742353 175 205 215 0.45048427873021429 2 4106 3 4276 1 4129
266 3.5588176266626501 -14.733352390746449 54.078100724775773 138 79 73 0.18498513006146611 2 4096 3 4274
265 3.5588176266626501 -14.733352390746449 54.078100724775773 138 79 73 0.18498513006146611 2 4095 3 4273
264 2.9482893742624903 -16.777144362658838 53.105904568042426 148 168 171 1.3983419567540263 2 4086 3 4267
263 2.9482893742624903 -16.777144362658838 53.105904568042426 148 168 171 1.3983419567540263 2 4085 3 4266
262 8.06710560497614 -18.357410140160663 52.178706547842602 75 78 93 0.011387601898431044 2 4071 3 4264
261 3.1693850706615962 -19.635736788793174 51.512567102772408 129 141 153 1.4646798886350645 2 4059 3 4262 1 4178
260 2.1067636791795086 -19.848624452353235 51.858026460526631 123 142 150 0.039910524367050677 2 4056 3 4261
259 2.8123598232572595 4.1093650585579544 18.73287126107553 109 117 118 0.57596619959217998 2 4044 3 4230
258 -13.974612616986546 -4.0628055034475397 31.596667417367271 162 185 195 0.6438229207158952 2 4016 3 4109
127 -8.8026350585898019 -2.5085430563574351 30.217849560316075 158 104 134 0.16300163883369273 2 2966 3 2399
126 -14.994588109301516 -4.02772839427666 31.542746355176341 154 110 141 0.05137883720817446 2 2941 3 2369
125 11.040100964933503 -5.7759419024750551 40.845457110270743 167 189 192 0.19955398056497767 2 2939 3 3026
124 10.275653113588302 -6.0521135846434104 41.064333361088721 158 106 139 0.25609886847482438 2 2938 3 2364
123 -12.433872551653263 -5.5099644647997899 34.928252888542239 156 176 185 0.35571820877237559 2 2934 3 2355
122 17.997295614538345 -10.810825522626626 51.026262087990759 143 162 171 0.19073994853996892 2 2920 3 3572 1 3128
121 17.674227237962327 -10.93776741566767 50.604972570846755 110 121 133 0.57629949763433186 2 2915 3 3570
120 7.3536981674007338 -12.940776662970171 48.162516967836304 112 130 138 0.39258519658247087 2 2859 3 3549 1 3115 4 3628
119 25.090937427141426 -14.056831212303855 46.868644392913239 132 161 176 0.59040864916140301 2 2842 3 3520 4 2222 1 1132
118 6.6797721577873421 -13.627114260126085 45.708923389314691 52 50 74 0.92324201154357421 2 2836 3 3532 1 3093 4 3338
117 0.3926842691653602 -3.9314231036054004 15.025139298935539 86 63 79 0.84438557108169088 2 2827 3 2964
116 3.2009896170979935 -16.600440303289759 52.903520456594286 154 171 174 1.050223495353424 2 2824 3 3517
115 2.6695179956380364 -16.799762023717324 53.282724956791881 154 172 171 1.0998224621284913 2 2823 3 2951
114 3.2273300186475353 -16.969186540112414 52.842950797878601 146 163 171 0.79915549561894794 2 2816 3 2945 1 3084
113 7.6935820169232239 -18.704446114968434 50.642775676487695 91 100 111 0.22133422325175706 2 2781 3 2915
112 -1.9704901064284608 7.1111275008285766 13.548660738799944 108 125 135 0.040702445115930408 2 2734 3 2089
111 -1.4836195185523953 6.6495701899320192 14.598695170298983 144 166 170 0.059919668710926001 2 2713 3 2074
110 -0.82406565831397294 6.6780439080343958 14.730333662005936 148 167 169 0.1085882062865092 2 2712 3 2756
109 0.9920801714202313 6.455904395196475 15.441432057472976 126 147 156 0.034244183168676695 2 2706 3 2072
108 0.46054576553758364 6.3619992150582458 15.532204688263581 150 169 174 0.15781463508334942 2 2703 3 2753
107 -6.6482780187488775 5.2286853501169048 16.000228107612749 115 137 109 0.56856443558437264 2 2681 3 1999
106 14.095769556124878 5.0759515872793619 20.673290808657725 167 188 199 0.26464086308261076 2 2656 3 3243 1 1613
105 14.107933728846268 5.0836279121884873 20.716408937918153 167 188 199 0.055111843569772598 2 2655 3 3242
104 2.2136632097930793 4.4904383799770144 18.882548902421416 50 50 75 0.28643471263635883 2 2651 3 2700 1 2448 4 1945
103 2.1628028384203124 4.2464296921010547 18.733646604475918 119 134 129 0.25522237957442084 2 2648 3 1984 1 2440 4 3166
102 2.2662684325928359 4.1461003282358693 18.706867202483846 94 97 107 0.68842613242415673 2 2644 3 2678 4 2648
101 1.8847227973576242 4.1573926611533265 18.849057282642935 46 48 70 0.23944428709701193 2 2639 3 2674
100 2.4386576246782194 4.1410919908001702 18.773383151650101 91 103 104 0.41063856836937618 2 2636 3 2680
99 -5.3527320802719354 3.3613185969653463 20.107245895122269 120 144 128 0.36041613439210024 2 2619 3 2614
98 0.57838419569256083 2.6174218358376029 20.561785504839033 125 136 141 0.35922417592836736 2 2605 3 2602 4 3521
97 0.35537714175533369 2.4194033418097312 20.595753963504787 99 107 109 0.16833922351690758 2 2600 3 1889 1 2369 4 3145
96 -4.2389464898267555 2.1930005720990811 22.340388626818307 162 182 184 0.42816420354131207 2 2590 3 2578
95 -5.3359420535667281 2.0302792145299189 22.339944351954323 166 182 190 0.16378908689248184 2 2578 3 1852
94 -5.0557438826209902 1.9916360811888782 22.58342581194248 166 181 187 0.1867862680985421 2 2574 3 2570
93 12.655682878474785 1.6152056648306696 27.038969307653083 173 194 192 0.093174471171484086 2 2563 3 3137
92 12.771174659502275 1.4730584171716989 27.28049427412224 169 184 191 0.16937833796302648 2 2553 3 3134
91 -3.4632683561732724 0.71306636043544658 25.34290104791291 172 189 188 0.12148257698178042 2 2512 3 1772
90 11.159282410855917 0.37144832760461327 29.119504021698415 160 173 180 0.0016347547185379808 2 2505 3 3100
89 6.2597063811653211 -1.0547557422921359 30.735958325636417 169 95 126 0.18215855857579935 2 2460 3 2467
88 -7.4932100521340477 -1.5183661833646187 28.54711619610957 147 159 168 0.10781610217266593 2 2439 3 2419
87 -8.6263194398663003 -2.4023242245842651 30.044676622662184 178 195 195 0.29788054261464941 2 2413 3 1649 1 2806
86 -8.6371354837298302 -2.5215738291399443 30.179701350300039 160 109 140 0.40404050498379945 2 2408 3 2401 1 3197
85 -8.676443442497515 -2.5226963155886626 30.251574229604049 160 109 140 0.0043948482568410205 2 2407 3 2400
84 17.620273154425696 -3.9903016396724138 38.427592732494332 166 178 185 0.27268183074398122 2 2401 3 2404
83 -6.1901151686828451 -3.4259010037256226 32.487389673330924 139 152 157 0.033183521685443744 2 2386 3 2380
82 5.5959305810508591 -5.6793718880734962 39.667141846553974 182 193 162 0.48669638403150284 2 2355 3 1598
81 5.5959305810508591 -5.6793718880734962 39.667141846553974 182 193 162 0.48669638403150284 2 2354 3 1597
80 18.433705374032673 -10.779373356176285 51.361289170984961 149 174 175 0.17596340440138691 2 2313 3 2334 1 2095
79 9.7261376722167778 -10.648485847732363 48.730216921934485 130 145 151 0.50673293309405798 2 2302 3 2325
78 24.862378545751397 -12.432255591694169 48.61880285257871 129 149 165 0.73591693604103658 2 2265 3 2992 1 2018 4 2860
77 0.75558731160157189 -3.7038021974817221 15.33704011600287 99 89 97 0.43049072183988546 2 2224 3 1458 1 1348
76 0.34287485318504268 -3.8019596958460999 15.057150355217853 94 83 82 0.36478790462987776 2 2210 3 1446
75 8.3402102842773669 -13.462728665772126 44.76997272290221 67 78 91 0.058201446499712386 2 2209 3 2963
74 -15.268684118832311 -16.828341324443873 51.802429442160062 138 163 177 0.40513645950823118 2 2195 3 2251
73 -7.7751157009098311 -24.449614278655915 71.153373116783456 99 115 126 0.56421620041777354 2 2181 3 258 1 2036
72 7.5661525551212199 -17.697787116256851 51.438419083871899 94 106 116 0.69260199022987456 2 2179 3 2925
71 7.4063076052940691 6.5543692200696952 16.541065746701332 141 159 172 0.029895757015781024 2 2023 3 1172
70 -1.0275269173653023 5.9560770897455599 15.963273817411437 121 136 145 0.020800350674660309 2 2003 3 1095
69 13.96610200798634 5.0974922231076985 20.519690488947631 141 162 173 0.26101971237478616 2 1955 3 2734
68 1.9009045286905142 4.3775978374125168 18.776369497930069 41 41 59 0.37498887279675835 2 1948 3 1019
67 2.7079948242016854 4.2002805580695552 18.842204613713406 103 111 117 0.21700716535333769 2 1939 3 1008
66 2.7268921117832439 4.185956188269202 18.767179546555376 103 111 117 0.55357627124970288 2 1938 3 1007 4 1903
65 2.8300611692465507 4.0957151578986224 18.806140616207802 104 116 126 1.5821100312378695 2 1929 3 1980 1 2419
64 2.7469717894494927 4.0117177069868335 18.838920658474716 83 87 91 0.27943197343297732 2 1927 3 1975 1 779
63 10.435806276042523 4.222165448438937 21.619697615726011 161 175 175 0.019000321873018956 2 1922 3 1991
62 10.690403136718311 4.0397794239503293 21.976259804542437 181 170 147 0.084543091655575428 2 1915 3 2689
61 0.22737376309896423 2.4119758918422627 20.596384890085204 96 106 114 0.27184984557112596 2 1885 3 1887 1 2372 4 2630
60 0.091226708876010046 2.4042181725531777 20.604974426948353 108 119 122 0.048526455619674197 2 1884 3 1886 1 1655 4 2632
29 7.3450613370418507 -10.138362129721511 46.881792628370533 248 255 249 0.11618998318179881 2 1420 3 1530
28 9.2305451749447212 -11.426856663987465 48.969815766965539 117 128 145 0.19223170946191057 2 1393 3 2316 1 1328
27 9.6358368111400505 -11.59102871176637 49.258318472625874 135 154 154 0.26929827630744174 2 1387 3 1504
26 9.322183465145045 -11.648106806008668 49.303832720653418 141 157 159 0.34648309290490936 2 1381 3 1501 1 1324
25 7.5690835567177146 -12.535407973641231 48.304995850882321 155 173 180 0.10869438687865088 2 1340 3 1482
24 24.861141297252512 -13.226140369475837 47.942760951066177 72 94 119 0.84766446292177688 2 1319 3 2981
23 0.78515489373125391 -3.6572955627989301 15.331942353462875 79 66 74 0.69166362504049161 2 1293 3 322
22 0.55758202075685126 -3.930272314268477 15.035679011739175 63 48 73 0.0071824051348380689 2 1271 3 2259
21 6.6632176896460775 -15.377419740651634 46.3733200040068 105 121 134 0.80269912005905275 2 1241 3 1408
20 9.0662051579700051 -16.330953138179112 44.651180578380263 83 89 98 0.79765359998509533 2 1205 3 2183 1 2548
19 -7.2369651443226024 -16.604007883762645 39.37208787305773 113 145 144 0.076263514011195299 2 1156 3 145
18 14.330877565925013 5.1524422609357261 20.588485760449426 164 184 198 0.047990577699164948 2 940 3 2043
17 0.42008903099775219 2.3963034729610704 20.562514247509693 83 91 102 0.83496896008939769 2 827 3 895 1 1651 4 2624
16 9.599965917949385 2.2298636289568052 25.283141136744742 153 170 177 0.14329434368971683 2 814 3 910
15 17.822428427023151 -4.5253655998965643 39.227070530612167 155 166 176 0.096886972303322078 2 581 3 2393
14 -14.983870672248068 -4.1009456408567821 31.470303393061741 160 176 189 0.15633729882074932 2 504 3 515
1 -7.2934301929716128 -16.407578201925297 39.497481754843072 127 151 152 0.036966949718003767 2 7 3 154
2 7.3381699932562459 -13.291759079363331 47.94274097755055 117 124 127 0.20857542891529285 2 182 3 1471 1 322 4 1319
3 7.2545710766241127 -12.486895600319421 48.277571311622239 133 151 150 0.16590002422250782 2 218 3 358 4 2277
4 39.915402685080068 -18.483286927779556 70.251637784574839 89 84 101 0.32705015917632874 2 248 3 1481
5 18.358951670396454 -12.525502931927036 50.214647478770637 111 133 155 0.24435287185387564 2 250 3 370 1 307 4 172
6 7.3522487519868536 -11.092198972779412 47.659254009572798 156 172 173 0.16953622090409065 2 293 3 1508
7 7.2875174691293436 -10.39207170557509 46.973969638196273 255 252 253 0.21676976998559472 2 322 3 1525 4 1407
8 19.190752975965307 -11.539910642048097 50.680845150790901 129 151 167 0.2507722044869336 2 323 3 396 4 208
9 9.3952882478239985 -10.4641602735842 48.614404884954865 66 73 83 0.33259776729530777 2 337 3 414
10 17.618370576596018 -10.44657211921727 50.711154856751129 85 86 94 0.17482091552878437 2 377 3 427
11 -13.036692374425259 -7.2050040416409811 38.016045840373366 146 116 141 0.075615067180521925 2 387 3 441
12 27.531528363146631 -9.6443625150422445 49.984478932811591 146 161 158 0.17259342702378749 2 427 3 451
13 31.34440824006775 -9.082695895247344 49.866718628087739 140 148 157 0.096433615214852053 2 453 3 1571
30 9.3150456972740105 -10.367424075587948 48.838839640175479 86 94 103 0.30954085361548833 2 1430 3 1539
31 -13.047738423089472 -7.2887944323636935 38.358124654447941 153 115 141 0.14829532787367111 2 1452 3 1554
32 -13.047738423089472 -7.2887944323636935 38.358124654447941 153 115 141 0.14829532787367111 2 1453 3 1555
33 28.247137991093688 -14.741675831916806 72.057069422003636 161 184 186 2.0925700808636489 2 1458 3 2340
34 26.0645706695306 -9.6522173077240705 49.607114126015233 97 109 126 0.16283616895031777 2 1473 3 3015
35 26.055793260348892 -9.6487191517362199 49.582317194204812 97 109 126 0.1495566533238685 2 1474 3 3016 4 1320
36 25.451409174670516 -9.3686856050846803 50.126492532907193 173 193 201 0.67981994505382826 2 1486 3 2351 1 1296
37 -12.305733813695589 -5.8558690404623519 35.200757923096511 159 183 187 0.085940673850388394 2 1491 3 473
38 -12.363772747777556 -5.6924884490140517 35.322129675707096 138 153 155 0.034117055209560938 2 1494 3 1581
39 6.2166337606027664 -6.9082531985229609 41.928800938023159 160 175 181 0.032648439936144497 2 1498 3 1585
40 16.288433641449199 -4.5499398413117262 39.072900568475347 160 180 187 0.1772784581295978 2 1574 3 2391
41 -11.461173785081648 -3.1540438499864796 30.945036657870617 149 112 136 0.092104618332963767 2 1576 3 548
42 -11.461173785081648 -3.1540438499864796 30.945036657870617 149 112 136 0.092104618332963767 2 1577 3 549
43 -6.1562151752005931 -1.9025542769109343 25.167756849972875 166 190 193 0.42449535991893883 2 1622 3 1645
44 -7.5273206259669259 -2.2394938722061144 30.093516724105488 138 122 140 0.058518385614582419 2 1643 3 609
45 -7.5273206259669259 -2.2394938722061144 30.093516724105488 138 122 140 0.058518385614582419 2 1644 3 610
46 -7.3428462531868171 -2.0079809856599611 29.848672497914151 144 155 160 0.53991000076988183 2 1655 3 626
47 11.038884376340949 -1.6475109755367308 31.498291089900981 151 130 151 0.76687507019461487 2 1692 3 699
48 6.2024069104436927 -1.1236399533010877 30.723558814395357 179 191 192 0.76316451820002662 2 1706 3 722
49 6.7770884616864615 -0.7153271849006505 30.22703049235605 161 177 184 0.075979790817419735 2 1729 3 2484
50 -8.5284211789896833 -0.20667232511129829 25.753269652612591 163 188 189 0.082122990583783639 2 1742 3 721
51 14.748419378382843 -0.570370048780798 31.562958329874547 183 196 203 0.04594822882090694 2 1747 3 2505
52 -8.604627107082333 -0.069913746515471067 25.444788563630105 161 183 194 0.053826716285386281 2 1748 3 1730
53 8.9628406008157668 -0.16144917750472609 29.66703880389236 161 178 182 0.37317186743151431 2 1758 3 2509
54 9.4857416352657697 -0.17848397532171489 30.083148128652603 186 204 180 0.28092456059823767 2 1759 3 791
55 12.893716760109658 1.3311540439126874 27.56550368987962 168 177 182 0.49832470217974711 2 1822 3 2584
56 7.7260124457069939 1.4456510325861698 26.442093936316034 169 181 188 0.10716136848123239 2 1830 3 1858
57 8.3363411139579267 1.5311582885181994 26.30513045626898 157 121 142 0.10680001940664449 2 1839 3 2581
58 8.5670051872666999 1.5894626705783534 26.244038413239153 150 114 140 0.024863167673838144 2 1843 3 1862
59 0.3140566907385054 2.3154814453848105 20.536817115300774 112 124 131 0.32421660765321508 2 1883 3 893
128 16.219021143264051 -2.5280398109386875 35.514916579919252 166 90 121 0.27234725558186035 2 2982 3 3049
129 11.284458810514471 -1.8666940320875645 33.173301671751879 193 196 160 0.70089123802041642 2 2986 3 1710
130 14.373290129212583 -1.2542391645899869 32.821535357072477 178 202 210 0.19127928985784684 2 3004 3 3602 1 2735
131 13.557564762545333 0.67830300761852735 29.018436744828715 170 93 127 0.089522175329243933 2 3057 3 3623 1 2761
132 13.557564762545333 0.67830300761852735 29.018436744828715 170 93 127 0.089522175329243933 2 3058 3 3624 1 2760
133 -7.6392338172752412 1.1974502190980791 23.364858628529134 170 196 194 0.12342434435214183 2 3073 3 1790
134 4.2314100297153114 1.335277085697264 25.83800915106665 176 195 195 0.16694580334087783 2 3080 3 3115
135 -7.3009369883154793 1.4020194469348926 23.087304362413697 167 188 193 0.20134772183336519 2 3081 3 2535
136 -7.5489143031597301 1.4266524469804303 23.066594194527145 147 105 137 0.17098451709377122 2 3083 3 2537
137 -7.3598063081123088 1.5326692966192563 22.870265006853991 159 178 188 0.29228172892139814 2 3085 3 2543
138 4.077528993368464 1.5301859867379726 25.403314057701007 183 203 206 0.20355940535329958 2 3087 3 3124
139 -4.3588979371805179 1.9622418892473357 22.667191947644184 174 196 202 0.24770751298533744 2 3099 3 2572
140 12.535173608908481 2.0820415745746419 26.219848333482936 168 182 195 0.76880535347165024 2 3104 3 3153
141 -4.6130694076604408 2.2416909265680514 22.205057149871106 155 178 178 0.46743124527561308 2 3109 3 3129 1 3257
142 0.11570445639907913 2.3194148381976643 20.668688949355808 87 95 113 0.20537552742703372 2 3117 3 3140 1 2849
143 -0.18753449744181744 2.4171005495566904 20.495127506509817 87 97 106 0.11918904928168603 2 3119 3 3146
144 2.3048929322844192 4.0424296693459301 18.721136586340716 45 39 66 0.32988689593543757 2 3157 3 3195 1 2886 4 3155
145 2.6568372694280411 4.0669849195947672 18.81937438690608 86 92 99 0.405462514573807 2 3159 3 3678 1 3256 4 3152
146 1.2363917119893473 4.1876600027285376 19.041091255337619 73 75 88 0.68287137989504787 2 3164 3 3196 1 2907 4 3540
147 2.0628509010938485 4.2478465952233861 18.763830192922917 39 37 77 0.35579642229060032 2 3169 3 2685 4 3167
148 1.649771150710257 4.3651952644225158 18.797750613441963 71 74 85 1.0168167513535671 2 3172 3 3206 1 3273 4 3184
149 2.3294016714116506 4.4016475526525589 18.752230841996095 122 138 138 0.29157980194535016 2 3173 3 3208 1 2443
150 2.0016667098731724 4.4914671992599526 18.81347841908979 45 41 70 0.36060343931386651 2 3176 3 3211 1 3271 4 3178
151 5.0850304482456394 4.6621931759902662 19.806329241462432 153 170 178 0.34387416487746081 2 3177 3 3695
152 2.7586009866669676 4.7817622182183266 19.027243778804348 111 119 126 0.56402648510089359 2 3186 3 3696 1 3270 4 3171
153 -4.8783928174307913 4.8817249612328153 17.083584109294105 147 168 179 0.37947225580823807 2 3193 3 2698
154 -1.7771067243776331 6.8729905271531857 14.089498267252216 122 139 149 0.043972090720764564 2 3234 3 2767
155 -1.7771067243776331 6.8729905271531857 14.089498267252216 122 139 149 0.043972090720764564 2 3235 3 2768
156 7.7143285626673004 -19.069153872106831 50.335067754939615 133 156 166 0.73612474812440809 2 3260 3 3489 1 2544
157 25.494079493244975 -17.613019752301469 45.279425780514501 153 179 200 0.6270629960982379 2 3261 3 3770
158 25.494079493244975 -17.613019752301469 45.279425780514501 153 179 200 0.6270629960982379 2 3262 3 3771
159 0.49073978174156213 -3.9599312776874056 14.937440398787338 130 122 120 0.60512884690290969 2 3288 3 2961 1 2675
160 8.4485791355108439 -13.555776817258993 45.720472339415274 61 50 71 0.32131804892184301 2 3296 3 3533
161 6.499311249459331 -12.863139404719497 45.791429543439257 62 58 81 0.30691692487089234 2 3299 3 3539 1 2651
162 8.5444611060234994 -13.071838533214263 46.649747117484729 58 56 80 0.28517902859448119 2 3301 3 3540
163 24.658395737980427 -13.188490973427511 47.087401906626134 175 201 216 0.68654053895274447 2 3307 3 3538
164 7.3248013412827184 -12.597007161850701 48.236197726907761 79 84 110 0.16240436299437344 2 3313 3 3554
165 28.166248984196454 -12.032182017953327 48.137548252323484 130 147 157 0.93572992582870507 2 3324 3 3558 1 2599 4 3322
166 5.9648740669844527 -11.478670279031451 50.709884257672293 130 145 149 0.0066201593774058345 2 3331 3 3567
167 25.663527009960085 -8.9231427837488102 49.368858854873437 134 148 162 0.3154066486050443 2 3345 3 3847 1 2678
168 8.2550062554062187 -2.7651691579977862 34.633933058075307 166 191 196 0.10023567993240705 2 3360 3 3593
169 7.4958100874400735 -2.6155832186496966 33.913645503460991 164 102 129 0.129430616502132 2 3362 3 3042
170 6.3570296702127953 -0.94037948189039799 30.690633550413846 183 194 177 0.035051086980717787 2 3379 3 3599
171 9.4953880424137775 -0.81823715600791869 30.957553147011037 158 175 185 0.33107597790917531 2 3381 3 3604
172 2.5341168330872184 0.86190877814630951 16.619139077410267 47 46 67 0.5752456642264081 2 3402 3 3087
173 -6.4046222443335008 1.6227407288391309 22.957837505091149 165 186 191 0.6109720776628389 2 3412 3 3107
174 12.673464522522464 1.9263594164626769 26.44107655488974 178 195 203 0.10835321648007937 2 3419 3 3637
175 9.9249975667395098 2.0697569460954095 25.784575046452346 175 193 198 0.11466071599942676 2 3420 3 3887
176 3.5108458385806789 2.4186752523145008 23.770557718327264 166 106 131 0.58919361929474334 2 3426 3 3150
177 3.5108458385806789 2.4186752523145008 23.770557718327264 166 106 131 0.58919361929474334 2 3427 3 3151
178 3.642430442810404 2.4724104232751078 23.702126492061318 170 195 193 0.061894358246161976 2 3428 3 3640
179 -0.017497702814539197 2.5395360534153797 20.482743738151026 70 75 86 0.49554786010415841 2 3432 3 3149 1 3241 4 3745
180 -4.8591961481828418 2.6321117471068569 21.259330020624425 160 182 189 0.20226750403820859 2 3433 3 3635
181 0.38427109723866459 2.6341142490022911 20.569629355559908 130 139 141 0.20229450676804314 2 3434 3 3643 1 3729
182 0.38427109723866459 2.6341142490022911 20.569629355559908 130 139 141 0.20229450676804314 2 3435 3 3644 1 3730
183 0.54565145236467127 2.8788459246461211 20.653684007019077 50 44 74 0.1873306595422336 2 3436 3 3162 1 3243 4 3744
184 -5.3952283743086671 3.3114674590682251 20.004473324395239 149 169 171 0.056170008923645071 2 3438 3 3163
185 10.789006800132753 3.7583516760655993 22.594756151436215 163 187 193 0.0260353960000172 2 3439 3 3675
186 0.72232247341982647 3.8233682487867204 20.418190775520021 129 144 148 0.20557392421690354 2 3441 3 3666 1 3258
187 2.1579683467715189 3.8696290102731479 18.853599104597869 52 55 75 1.6718135589171823 2 3442 3 3189 1 3743
188 19.236388097363282 4.4788122317413208 23.076246875694039 139 159 173 0.12570171051435991 2 3443 3 4144
189 2.1948853429255806 4.0156065740816924 18.725852880064764 103 113 122 0.63558615886062186 2 3445 3 3193
190 2.1888173317492501 4.010655894074219 18.753185939638602 103 113 122 0.82393860078421721 2 3446 3 3194 1 3746
191 2.332068032800974 4.2912708077527997 18.723232415083903 42 41 74 0.9362225689173953 2 3451 3 3682 1 2900 4 3164
192 1.8345603786357756 4.5045143958057299 18.774213816683243 48 40 63 0.87705325431704673 2 3456 3 3210 1 2911
193 2.882378943490802 4.689854472435786 19.06243581020896 58 54 82 0.30187584088055613 2 3460 3 3691 1 3268 4 3165
194 2.8783295917893374 4.6911266686280104 19.070597255134828 58 54 82 0.17503827971222635 2 3461 3 3692
195 1.4123300208816656 4.7254392320192009 18.799545914820378 107 120 122 0.54201741015668436 2 3464 3 3212 1 3279 4 3543
196 1.7530443193351237 4.790651680817299 18.788387221310177 106 117 120 0.29333140853119738 2 3466 3 3217 1 3278 4 3755
197 9.6088238788028981 5.1464435386334628 19.652251262729997 175 197 204 0.31490532080016553 2 3467 3 3707 1 2846
198 17.1886987496028 5.8071476827877273 20.192850205196983 167 187 201 0.70766988528646468 2 3475 3 3957
199 11.504714865009419 5.9775841007263324 18.412172830310986 167 191 202 0.37351764639620466 2 3483 3 3954 1 3237
200 25.937648315512938 -17.536739947829073 45.651968212404199 166 197 216 0.49462441259397161 2 3539 3 4039
201 -2.2308219816931567 -17.684574502543214 54.167891778938909 143 167 173 0.55771714169537523 2 3559 3 3797
202 6.5506927544125295 -14.301302793986544 45.531386878771471 110 123 137 0.43752925568157286 2 3571 3 3799
203 6.5506927544125295 -14.301302793986544 45.531386878771471 110 123 137 0.43752925568157286 2 3572 3 3800
204 0.41861712252788519 -3.7926653865083142 15.043737998593301 72 55 69 0.20369024633547841 2 3580 3 3535
205 6.3994170824334775 -13.341176692981758 45.456542156611889 80 85 98 0.54373477001873693 2 3584 3 3811
206 6.3994170824334775 -13.341176692981758 45.456542156611889 80 85 98 0.54373477001873693 2 3585 3 3812
207 8.709794473957853 -13.372324662987948 46.062293693060198 72 79 92 0.42891323416699839 2 3589 3 3814 1 3094
208 9.1411046895530585 -12.900340780700557 47.58632411772426 67 70 94 0.42631520651710508 2 3602 3 3823 1 3638 4 3819
209 5.7429917610543315 -12.294502061587501 50.681174260302065 75 87 109 0.6278985414028353 2 3611 3 3563
210 -12.472944457888662 -5.7539794598017506 35.207630158543019 61 67 86 0.19776845150852285 2 3632 3 3577
211 12.159899834851833 -1.8034012296598518 33.153192321729776 174 197 204 0.29051761636126949 2 3647 3 3865
212 14.895274891802243 -0.92005101786943566 32.245439228688198 172 94 122 0.99807751697277869 2 3651 3 3869 1 3165
213 -10.896904841935829 0.43282451535897909 23.868175937920569 157 174 180 0.22389170001681563 2 3655 3 3605
214 6.4290628432580528 1.2168038972315811 26.421761107063574 179 198 205 0.64277122084276017 2 3666 3 3879
215 9.4906439974431152 1.6547005912819377 26.415518639999874 172 191 198 0.23955627179214281 2 3668 3 3884
216 -5.0005950239777324 2.1589899652446047 22.160143553721756 164 188 194 0.10520913517049058 2 3670 3 3880
217 0.47490337879975969 2.5193040082484459 20.577485525255259 47 38 69 0.17737099558631567 2 3675 3 3888 4 3897
218 0.47490337879975969 2.5193040082484459 20.577485525255259 47 38 69 0.17737099558631567 2 3676 3 3889 4 3898
219 10.449361037911725 4.1416113009955566 21.761432592014604 167 187 194 0.098749876423089411 2 3694 3 3922
220 10.62358731900401 4.1424183166241209 21.845617478568727 163 100 123 1.00870702916056 2 3695 3 3924 1 3209 4 3079
221 2.1160779560844154 4.1625001984796439 18.751210764594497 50 40 67 0.44860728514889425 2 3701 3 3681 1 3922 4 3903
222 2.0428560128162014 4.370846116705291 18.80217039366881 131 139 145 0.19214563955239278 2 3703 3 3918 1 3751 4 3751
223 2.4507179168600786 4.43968102834907 18.843517341748033 49 46 65 0.18165688769045532 2 3704 3 3921 1 3748
224 2.4693371201443033 4.5991406283725134 18.998294670107597 108 119 122 0.33118927850537366 2 3706 3 3685 1 3269
225 2.3701318545906158 4.7309743561898046 19.110232439977683 74 74 87 0.26003307675980736 2 3707 3 3690
226 -6.8138613818718428 5.2424639420421935 15.977974864126516 137 156 165 0.28439985464296302 2 3716 3 3216
227 8.9789439495478049 6.1492657537938511 17.585126014859924 156 174 182 0.23143696347387416 2 3721 3 3958
228 1.466303438111632 6.0098494904464417 16.365340387485936 155 172 179 1.0967311427194346 2 3723 3 3718 1 3771
229 -3.1912148132919582 6.2033099829375953 15.021354363371056 144 175 180 0.22809077091544772 2 3728 3 3250
230 0.086124368835527071 6.3583580146084504 15.461800791354291 150 170 176 0.10279895366816771 2 3729 3 3727
231 -2.5723296138464025 6.3756085065682413 14.84630665722119 139 162 170 0.23217204231328303 2 3731 3 3950
232 0.052373112427408712 6.9202180894705618 14.346454635211298 145 166 167 0.23106800898881902 2 3738 3 3731
233 -0.049871653401444199 7.0391308615297872 14.205412170162241 144 164 169 0.4957568803038091 2 3741 3 3733
234 -0.049871653401444199 7.0391308615297872 14.205412170162241 144 164 169 0.4957568803038091 2 3742 3 3734
235 2.6028353875618611 -19.542896221666354 52.753829058848481 131 90 95 0.091012308617275356 2 3763 3 4047
236 9.1933319055853868 -16.382289206912557 44.455324299870796 59 60 80 0.45023962995315625 2 3768 3 4045 1 3831 4 3941
237 9.1933319055853868 -16.382289206912557 44.455324299870796 59 60 80 0.45023962995315625 2 3769 3 4046 1 3832 4 3942
238 -1.3325198662229731 -18.17116237799744 53.514628791882629 139 163 175 0.38863345443977115 2 3804 3 4062
239 -16.54830323621626 -7.7570070919021479 35.706954456385816 143 167 177 1.1349964145277989 2 3861 3 3569
240 9.4683449393589054 -10.556854515664456 48.773778708838741 71 79 93 0.018942940535549596 2 3867 3 4092
241 17.102529685475833 -11.001920859094616 50.050005276840039 179 204 218 0.15331845248239376 2 3869 3 4198 1 3863
242 7.304338675063164 -9.7254200744598194 46.812299465270961 74 81 103 0.042308131929740832 2 3871 3 4095 4 3972
243 -20.424814853721355 -5.7889850509175389 33.171809617255555 141 162 175 0.56668517217403647 2 3874 3 3845
244 25.785324791581111 -9.3568829675842249 49.593732815450295 172 199 207 0.20372260521051369 2 3877 3 4201 1 3862 4 3821
245 1.8991213859839462 -1.5580409725890378 16.242709601936916 50 41 65 0.595694060252971 2 3883 3 4207
246 -11.175722794127738 0.6207691029599457 23.632252824555813 158 179 190 0.36254847159104503 2 3902 3 3868
247 -11.407646736407967 1.1108786466149723 22.439485399383489 152 176 186 0.070134112618043504 2 3903 3 3872
248 -7.5656614649216456 1.5529733941959285 22.862434064369225 163 185 191 0.28521187415857691 2 3906 3 3876
249 -5.9759228100044188 1.662553837360518 22.869897962856275 165 186 197 0.20075606095038362 2 3908 3 4122
250 1.8531286408844321 4.2369973065024666 18.78487303896727 43 37 60 0.86750468058453734 2 3933 3 3915 4 3907
251 -1.3870995737578358 6.6975805497617005 14.528229240989006 150 172 178 0.003632477162616032 2 3955 3 4148
252 -0.30723447476265614 6.9806815107143052 14.26090253948656 139 160 168 0.29076247539965056 2 3961 3 3963
253 2.1314062727082694 -16.898960707656656 54.97263853269498 143 77 76 1.4561845877113748 2 3993 3 3807
254 0.26357333466802857 -3.7829977763617757 14.967015223397818 100 85 94 0.66330440561060267 2 3995 3 4079 1 4061
255 8.9128756507384832 -10.353318373041002 48.870038850220844 142 161 166 0.18953603070058991 2 4008 3 4199
256 0.95965450220916471 -1.7118318706110927 15.181327079089266 157 179 185 0.38206038137926573 2 4014 3 3850 1 4076
257 -13.974612616986546 -4.0628055034475397 31.596667417367271 162 185 195 0.6438229207158952 2 4015 3 4108
