# 3D point list with one line of data per point:
#   POINT3D_ID, X, Y, Z, R, G, B, ERROR, TRACK[] as (IMAGE_ID, POINT2D_IDX)
# Number of points: 439, mean track length: 2.7417322834645668
566 -10.033038873857864 3.941450638470775 30.16282243572674 130 147 159 0.5430447613794102 4 3533 2 3093
564 -4.031814965111982 9.21342907309951 28.82585771923824 162 185 185 0.3729316178018588 4 1026 2 1476
563 -17.633895432952297 -17.552229853086182 54.2086134032442 59 71 85 0.8876304752866568 2 1443 1 2538 3 2508
561 -10.054593624452625 -6.259594538074582 27.652433016893028 63 54 70 0.16213351382177787 4 462 2 307
560 10.778489822130894 -15.04236886256075 44.062271670543915 144 160 173 1.6199943554436873 4 68 2 94
559 -11.03124756701436 6.900148963055446 31.084473434736655 148 167 174 2.054408169687415 4 31 2 16
558 -8.965491756474018 1.5469828189897057 29.517144732880947 144 158 166 1.2932495466810239 4 3192 2 3237
557 -4.422496943334305 6.406101016774076 39.88019023907033 167 187 194 0.10082123238221594 4 3221 2 3227
556 -9.556079825772649 7.838096051838261 30.819700315919658 153 163 160 0.31426429299562336 1 2981 2 3134 3 3302
555 -10.097019048378307 1.6811938767959165 28.511540382872713 152 132 144 0.8131034525660402 4 2267 2 3120 3 2309
554 -8.758591951507196 3.8061676465632073 30.877900779054475 166 196 206 1.1418604083227486 4 3281 2 3101 3 2291
552 -9.598838295685983 7.366570043148839 30.97514494350618 74 96 110 0.3829714468359815 1 2891 2 3040 3 3278
551 -11.890649854468828 4.407703721330595 29.737629711796743 117 120 121 2.407671352275021 1 2883 2 2979 3 2283
549 -4.084592714389935 -3.647096895301552 60.5863473535647 55 71 87 1.47138871730622 1 3049 2 2828 4 2181
548 23.02393010482062 1.3818887287758572 45.7692013697606 107 138 148 1.597714579697953 4 3448 2 2746
547 12.374280255242857 1.3659796318016162 61.16488479094928 164 182 189 2.4917282226253503 1 1923 2 2721
255 -9.654484714108731 7.247804363595121 31.077923960384627 64 57 78 0.25600875317465055 4 1595 1 1711 2 1696 3 1676
254 -9.184045347780106 7.286757131466824 31.048036525747847 170 201 199 1.5247614066735458 4 1594 1 1706 2 771 3 1681
253 -9.387218480901211 7.348387432189408 31.09492550689266 58 78 110 0.5827304136960734 4 1593 1 1704 2 1697 3 1665
252 1.735352390416689 7.791701838327253 34.51590833935568 162 175 184 1.0434298452468314 1 1150 2 1686 4 1592
251 0.7913434865121106 7.870350339183648 33.750183228136464 171 190 192 0.29873563779870715 4 1587 1 2277
250 -11.942933590257335 7.495437485504682 29.507483028070922 98 113 123 1.3356074962331768 4 1583 1 1702 2 1042 3 3267
249 -11.791486064168838 7.52185861418201 29.661346998470233 47 47 76 0.22872984259458204 4 1582 1 1700 2 1040
248 -11.176755261737494 4.558085867640099 29.93712477329405 113 104 109 0.8261895487578058 4 1574 1 2233 2 1755 3 1588
247 -10.477616192785694 5.434604519327201 31.02126611966053 144 163 170 1.2420207663954954 4 1571 1 1685 2 1733
246 -2.8058300146854154 7.4630398083443295 34.854420159223956 167 184 192 1.1043294290346417 4 1569 1 2208 2 1683
245 -1.1941341207991356 7.160110376335975 36.67019829300975 158 179 186 0.5411195553729471 4 1565 1 2896
244 -1.1784877718052202 7.986099180158988 29.071313579308107 154 94 120 1.4987990705812146 4 1557 1 1767
243 5.811798121431128 8.53455046275944 32.267479065357485 155 172 182 0.2616344424476357 4 1556 1 1216
242 -2.1459485101943754 8.31676420518956 28.42754442783538 151 93 120 1.4355116851674918 4 1547 1 1160
241 -2.7748144550494356 8.946070144344322 30.529537638676953 160 176 184 0.8462851705825277 4 1545 1 1760
240 -2.452997816678048 8.937751824034036 30.28625897442951 162 182 186 0.7443435593462555 4 1544 1 1757
239 7.221473736518349 8.930480300263987 30.772227719309697 161 176 191 0.026590093013552474 4 1541 1 2137
237 -11.693051184068953 7.808931536499222 30.482378335985366 151 167 166 1.0458578211749747 4 1539 1 1141 3 926
236 -9.489993247803392 7.9055541774231735 30.81744539050175 50 38 66 0.39772774936604965 4 1537 1 2267 2 1035
235 -11.869299979136597 7.7582709937553345 29.37817878781797 185 219 208 0.6193247389785627 4 1535 1 1656 2 1051 3 2090
234 5.240579327700254 8.458859562688168 32.047040224846704 171 177 152 0.583377359152285 1 1214 2 2952 4 1530
233 -8.186622814677307 8.27795182530772 30.81210932654676 145 164 166 0.9708561255796232 4 1527 1 1643 3 1650
232 -9.163213289444364 8.30039360535105 30.47724802999821 140 155 164 0.8391145178680187 4 1526 1 1644 3 1693
231 5.183039965614634 8.425895457181495 32.33767220082594 140 105 131 0.21164956353797237 4 1522 1 1174
230 -8.153441964637882 -16.821061628203786 45.59095120770518 94 87 91 1.6498246568370134 4 1481 1 1630
229 -19.439868367081374 -14.932394272120806 39.18930754779839 114 134 141 1.2242146221612273 4 1477 1 2191
228 -19.239589782993942 -14.796602794169138 37.736520263485225 117 137 144 0.9687301103791139 4 1461 1 2313
227 -18.947541592598526 -14.757548330138441 37.93136008367999 100 119 126 0.8013921642106016 4 1452 1 1600
226 -10.46548930545317 7.592283045949156 31.44210024138084 154 172 176 0.9232094004700693 4 1438 1 765
225 -9.085322742105534 -5.926465463098007 27.79095362652918 66 61 79 0.5375996436454529 4 1413 1 1438 2 924 3 1355
223 -8.584764089722391 -3.9690044910490565 29.642326523223748 159 183 191 0.31159393548876835 4 1410 1 1270 2 1255
222 -9.454317665500506 -5.28161624226709 27.587178346985116 87 70 76 0.6773169939381997 4 1364 1 1431 2 917 3 1327
221 -9.241927083548715 -5.30934077658712 27.7939914710276 86 66 78 0.6586853417628713 4 1363 1 954 2 930 3 1119
220 -9.725576996124223 -6.252518799888044 27.361572822058537 89 74 78 0.6466147748626224 4 1356 1 1492 3 1346
219 -21.385498997258793 -7.793560397188381 41.15990024061078 169 187 197 1.2505691527104439 4 1352 1 1432 3 2011
218 -21.25474343573855 -7.524338560777039 40.6954419843763 123 152 158 0.1958614029760341 4 1351 1 2429
217 -21.57833524564053 -7.483472758755482 40.48051010306217 127 156 160 0.297730788512908 4 1350 1 2046
216 -23.170218294645625 -7.142183669499661 38.6390989320367 125 145 156 0.009528077048230301 4 1349 1 2171
215 -22.244709891397886 -7.033880810983039 38.71552645039268 164 192 196 0.9161875575028502 4 1348 1 1532
214 -21.273973035633507 -7.731180573626529 40.71285057014797 140 159 169 2.314833828242988 4 1347 1 3074
213 -11.097118026615828 -2.8461747692719985 27.909030289199276 141 166 171 0.8519144774901551 4 1346 1 1858 2 855 3 1696
212 -9.142135220862084 -6.20574465735522 27.844476497376462 135 128 124 0.21237410182289695 4 1345 1 1482
211 -9.043190378497485 -6.202350248543086 27.925802345277546 122 112 116 0.6769227384665282 4 1344 1 963 2 1423
209 -9.580865370171571 -5.921457290848502 27.47249524338122 63 60 70 0.647379868422024 4 1340 1 1439 2 1429 3 1354
208 -9.25002334478788 -5.648329415771361 27.687783116431852 144 131 133 0.36213792140227846 4 1337 1 1334 2 648
207 -9.348747725729295 -5.519826117422421 27.58643951386817 104 88 91 0.6423741412967543 4 1335 1 1434 2 1893 3 1361
206 -9.413975466017572 -5.4026820649418275 27.578941521018365 142 127 127 0.7094545893491895 4 1334 1 953 2 647 3 1121
205 -8.782871542718865 -3.890428841602493 29.301528876908552 139 159 168 0.45304639247071893 4 1328 1 1274 2 964 3 1090
204 -9.578905185314685 -3.732181653131491 28.581075717897228 184 209 211 0.5951525227853194 4 1323 1 3035
203 -11.098719772526477 -3.6022471674475196 27.720804517756243 157 182 189 1.037527951889805 4 1321 1 1833 2 1261 3 1425
202 -23.472703650580065 -7.067635285146961 38.95356360499059 167 187 196 1.3593922403639318 4 1320 1 2052 3 2020
201 -11.356807396920725 -3.4002810002208492 27.5853392393715 159 194 196 0.5490249454802337 4 1316 1 1828
200 -9.542344728433694 -3.3959568150987556 28.578783822175783 183 212 218 0.3946918483754897 4 1315 1 1827 2 986 3 1080
199 -22.325459560120596 -7.14577913141808 40.16115737547588 130 169 170 0.8868866469768548 4 1309 1 2054 3 2028
198 -22.814008964997683 -7.033684514103588 39.6058209361184 147 175 180 0.9605009125027445 4 1307 1 2055 3 2029
197 -21.37154256704639 -6.942562502816211 40.03369075723234 165 193 205 0.5849801369054404 4 1306 1 2057
196 -10.865282908010421 -4.376701299239796 28.10063283350257 175 205 207 0.5116794047462967 4 1303 1 1444 2 1003 3 1874
195 -10.911829044993743 -3.768138410468122 27.86554908524518 142 169 178 0.7527306912189569 4 1293 1 1834 3 1102
194 -8.41766858957706 -1.8828743425895638 29.923982854244215 131 150 157 0.4538474045719815 4 1287 1 2159 2 838
193 -16.764233078232472 -14.381047288013292 45.51098098210593 235 252 254 2.296495672554311 4 1283 1 1356
192 -20.586809899106324 -13.635593785131434 41.129262424380535 132 146 159 0.1827716928681898 4 1280 1 2509
191 -11.249141352659535 -1.992689187453329 27.787236231060295 146 169 177 0.19150031923925423 4 1279 1 2094 2 1235
189 -8.764757643240468 -1.0453817163089465 29.991191733749204 129 144 151 0.5573173991102874 4 1217 1 1258 2 901
188 -10.313666078802092 7.0630160794120505 31.468634011514343 145 163 166 0.6015389229473581 4 1214 1 1680 2 1691 3 2085
187 -3.4530215265731847 9.165012694159175 28.924881270287187 161 172 182 0.31852183823497426 4 1206 1 1219
186 -1.4646308668893164 8.51246931019198 31.522818305678676 164 182 183 0.4999629314712378 4 1192 1 1662
185 5.444405018298419 8.503711299476878 32.227979968387125 152 107 134 0.6500982460446999 1 1215 2 2340 4 1189
184 -9.40993552626984 0.3080061821674484 28.967800426976073 137 159 164 1.2013304700519833 4 1185 1 865 2 879 3 894
183 -8.51899192914501 0.10741073898182152 29.834334938638914 147 164 171 0.06446021136214325 4 1177 1 1289
182 -10.592745332957339 1.9180728740240565 29.06619917053771 148 164 177 1.1747025353971567 4 1167 1 1319 2 744 3 991
181 -9.436098356192213 1.7524735085929124 29.73105219026419 137 151 162 0.37323545945896347 4 1165 1 1304 2 1147 3 1313
180 -9.122644226013211 0.6493311092882597 29.58579830488041 179 196 199 1.1808193283086597 4 1153 1 1296 2 887 3 2216
179 -10.777928829620453 0.492693862441975 27.817781529999685 148 173 178 0.47623197042739435 4 1150 1 1293 2 1649
178 -10.071211966033436 -4.257950232184773 28.263437273565522 137 126 134 1.4947565708461483 4 1128 1 1843 2 1007 3 2625
177 -11.030965130895263 -2.1462424621971703 28.121236556238294 177 197 206 0.3426436976818324 4 1110 1 1323 2 1227
176 -8.244303838925777 -3.4200309426153455 29.95529803019056 192 218 223 0.3536956729513854 4 1106 1 580 2 850
175 -11.076130008393266 -3.194690540225843 27.81356456841075 148 176 180 0.6649801168980236 4 1105 1 1860 2 851 3 1750
174 -10.956298874877687 -3.3014852605594998 27.799618166569573 180 202 210 1.2190983314007358 4 1104 1 1280 2 473
173 -9.259425052014363 -3.5307721586579612 29.048658667339424 182 207 214 1.081507606419148 1 827 2 464 3 426
172 -5.305085223434763 9.693546786389744 27.122685424712163 160 181 176 0.6576927828448615 4 1092 1 1189
171 -5.02989138969386 9.42072614246156 27.544571132518534 165 190 190 0.4806596533894365 4 1085 1 1226
170 -4.027902606382839 9.364222337552379 28.403801241113776 147 174 172 0.255728559767058 1 815 2 799 4 1080
169 -3.9674855266891544 9.046753846973488 27.645746546151212 152 94 115 0.3869046574060653 4 1079 1 1224
168 -3.8168334251076805 9.302611769457652 28.661016530005114 158 171 172 0.5954673487897 4 1077 1 1222
167 -6.865274741087354 9.257255190208168 21.359834481195694 154 174 182 3.55789426429745 4 1070 1 1175
165 -8.045599896925406 10.12248097148181 22.79097797364576 160 186 190 0.49120875934288855 4 1052 1 1740
164 1.7026222632145114 7.5021713477111795 34.27530550777903 155 180 185 0.07813122148156332 4 1050 1 2961
163 -3.642112132227251 9.248760377755497 28.82255386860422 159 180 183 0.7157852981825569 1 1221 2 1022 4 1040
162 -11.750924769852551 3.7036617823986533 28.976567054304567 171 199 211 0.41380022386850807 4 1036 1 1170 2 787
161 -1.0338730530286813 8.753992943728433 30.71026740682843 169 190 195 0.43900109868027243 1 1159 2 1166 4 1021
160 -1.9832374131947244 8.59615907299462 30.819751084226834 160 183 188 0.745843579251145 4 1020 1 810
159 -1.2478974662825022 8.56159282620587 31.68566359550919 165 104 130 0.7947022757572807 1 1707 2 1157 4 1019
158 -11.552068861546696 7.040870335210138 29.943426794922587 146 173 178 0.6685836980363848 4 1016 1 1689
157 -9.259826136795942 8.236954834326351 30.691641235907607 102 118 118 1.3931556254127748 4 1015 1 1647 3 1206
156 -11.909981226881099 7.973797930628142 29.15927294286864 175 220 210 0.3406914899722497 4 1014 1 1135 2 697 3 1198
155 -9.36896844562209 7.699034430374943 30.824471014413113 41 42 58 0.49918842729605023 4 1010 1 1144 2 766 3 980
154 -9.119044287302327 7.633726139661779 31.070380368286475 199 220 225 0.4725000573418714 4 1008 1 1142 2 1164 3 1195
153 -9.857046057430829 7.365572336842845 31.131895393343704 57 53 68 0.35192247129071685 4 1006 1 1698
152 -17.717918666494118 -15.638123193356032 43.446436657009976 69 87 97 0.6894900047600562 4 1003 1 1385 3 1129
151 -18.586320081654275 -15.006667293060637 40.99231419176437 89 105 118 0.6471659194100832 4 1000 1 716 3 1130
150 -2.951785383563203 -16.167848882837923 45.47375249613935 255 253 254 0.783837497371227 4 994 1 1584 2 1203
149 -19.00149712596019 -14.733810545386056 38.29363206794568 134 154 161 0.835495443412716 4 981 1 1133
148 -20.62318823325954 -13.558142675977784 39.554857367775234 132 161 164 1.552334131407327 4 977 1 1106
147 -19.942174655233007 -14.428148031367439 40.8425702741722 78 86 99 0.6376940266084128 4 963 1 917 3 944
146 -18.982510635547346 -14.90746114563619 41.53809973062905 124 138 147 0.849607349453946 4 959 1 1098 3 2558 1 2329
145 -17.900575293539543 -14.836211619858021 35.67910973877694 141 162 166 0.5707221675170255 4 955 1 524
144 -19.105307183824625 -16.894207951639387 40.331326328069544 93 99 101 0.08507502612830502 4 946 3 994
143 -21.547816146042027 -14.328329489668198 35.191894635429854 110 133 139 0.41407993690500217 4 931 1 1583 3 2439
142 -12.488120982926743 -15.955590922357738 39.98684275110639 105 94 100 2.1750484152960956 4 916 1 1051
141 -21.105634904911213 -7.244675499192563 39.922820220830936 164 192 205 0.31692855114663254 4 905 1 1454
140 -23.455670088282805 -7.102359581269987 38.29828163228632 139 164 171 0.02339498136046436 4 904 1 1011
139 -9.854805832709275 -6.180328696105082 27.617323776518298 150 147 146 1.5183057844482342 4 897 1 962 2 309
138 -10.93296902989816 -4.526883203056161 28.245381867937244 200 233 235 0.0930919396705217 4 876 1 993
137 -10.44528679436595 -4.6921006342373195 28.255789490967473 141 132 134 0.22347679609293408 4 872 1 1441
136 -11.142262126875538 9.028815047901528 27.844033372248916 162 181 188 0.7425724016526778 1 809 2 693 4 862 3 932
135 -20.462188223873184 -13.091232051944539 41.380668646624294 103 129 142 0.9257614646096588 4 855 1 744 3 698
134 -9.228703785354128 -5.429477389095742 27.767903854530942 130 120 121 0.7715561543132654 4 849 1 951 2 928 3 1120
133 -9.511132825471064 0.9283216871521055 29.457581051799057 158 182 192 0.7022610623647961 1 1908 2 1091 3 1301
132 -11.18055351258441 -1.7205677783340696 28.20194879356732 109 123 126 0.8049331728725979 4 800 1 872 2 611 3 734
131 -11.232738569454117 -1.4619482675132536 28.25234282503384 174 200 201 1.0473807055193072 4 799 1 1252 3 1293
130 -10.921082883831716 -0.8529322680061697 28.34160679653783 135 151 159 1.2753694929577128 4 795 1 581
129 -8.418249637950327 -0.8410636876870325 29.646758763703676 173 186 192 1.227605589965919 4 794 1 1298 3 3098
128 -10.800633469833814 0.08580731085697449 28.228846578188858 181 206 211 0.8451081419413076 4 782 1 859 2 418 3 505
59 -9.351027765335997 -5.685246468504011 27.56474067651266 135 120 123 0.99094432174408 4 345 1 336 2 217 3 425
58 -21.684642850736488 -7.051610535475405 40.41882165505828 165 194 207 1.0114049977680604 4 333 1 352
57 -21.12984147410947 -7.9506904878114595 41.034347800259525 162 189 202 0.8572460185082804 4 328 1 337
56 -11.685183365127898 -15.510371565817104 40.241196889928865 84 68 78 0.8435299385196156 4 325 1 358
55 -20.553376406766926 -14.530471794235504 39.03876600001406 131 145 154 1.0332540977691627 4 317 1 364
54 -19.939436809425143 -14.600624352439564 40.79424212914224 83 87 98 0.8482451949060994 4 313 1 365
53 -9.616073113108836 -0.503394944722712 28.732700736373243 199 226 233 0.7701881072939905 4 302 1 257 2 185 3 283
52 -9.546697160671904 -6.295206576147138 27.509553307215892 126 112 109 0.6749142723293104 4 295 1 197 2 158 3 226
51 -24.58257140184667 3.4019703836703523 41.45682637268525 168 196 207 1.592802625096006 4 293 1 403 3 484
50 -23.343429208528452 -6.442989038125827 39.1330363487639 126 148 159 1.219559924323562 4 290 1 265 3 420
49 -8.578732809076902 -1.83105300318612 29.852142981240892 126 140 141 0.32999219424091425 4 281 1 263 2 193
48 -10.367416757724527 -0.8354593922187992 27.820550720773205 176 201 208 1.9555761303400672 4 277 1 435
47 -21.74108094313363 2.74514025648685 43.74704372183729 169 194 203 0.769634751972827 4 267 1 402
46 -10.111350105697285 1.8794207823547386 29.182583449773603 147 170 178 2.085082434934581 4 266 1 317 2 254
45 -11.36116965348186 4.982266313895918 30.078004797412646 114 110 109 1.2269239240329715 4 265 1 538 2 165
44 -11.507377496695701 6.722644443684622 30.271407483121074 149 171 169 2.3878887230429946 4 261 1 242 2 235
43 -14.08291848278513 -15.305348602003388 38.10930293484638 80 65 70 1.5296178592323375 4 257 1 213
42 -17.02183779987956 -14.02711529788626 43.8293654728144 71 85 98 1.4411845826832301 4 247 1 227 3 121
41 -10.65833620888921 -4.625014908336171 28.31231851646221 198 229 234 0.16191953567050968 4 246 1 353
40 -9.25197136554644 -6.135709026583414 27.565324337224226 134 127 129 0.8634330879823493 4 240 1 291 2 215 3 286
39 -9.578904726869494 -5.947234965492131 27.5605908878706 69 65 73 0.60376838189102 4 239 1 261 2 156 3 296
38 -22.63493811939893 -7.578549186397495 40.17322506544382 160 189 197 1.2991031910778688 4 235 1 201 3 269
37 -9.89535628274053 -4.983485181657613 27.94024548838452 128 117 111 0.29277777963731744 4 234 1 340 2 153
36 -8.831467387709033 0.8823796899407926 29.089945815356675 175 200 207 1.4261940562692093 4 218 1 233 2 76
35 -10.775204013213195 4.206852639511722 30.091978138594357 151 171 177 1.2856142172277822 4 210 1 210 2 176 3 233
33 -8.881797646100402 1.6086311460506297 30.608007121735337 164 184 195 1.5650089361513515 4 200 1 401 2 256 3 256
32 -10.183751443670856 -4.4900765842967285 28.17088975385425 145 136 131 0.5411315076002271 4 185 1 203 3 410
31 -20.89123637554748 -7.151922009619701 40.786259080947076 171 200 206 0.08892573594052874 4 184 1 259
30 -19.442060701094416 -14.946999637650265 41.49942263324971 74 85 100 0.9421697421506189 4 174 1 155 3 149
13 -11.501040346550086 4.503245147817794 29.78754256909004 109 98 102 1.226547110355594 4 77 1 76 2 40 3 73
12 -11.845705157852176 6.175999442102405 30.05288949025123 123 117 119 1.3750472693396585 4 75 1 73 2 33 3 71
11 -11.373492648048096 8.748934715349757 30.2780654112274 145 159 168 0.9874521789290986 4 74 1 72
10 -1.291563524532595 8.88397021510468 29.88062052323829 166 191 196 0.4386238088259621 4 73 1 70
9 -11.330812903960929 8.855232180713895 29.017474011658383 137 157 164 1.9178629867763117 4 71 1 71 2 56 3 108
8 -9.939961242706648 4.64537747900802 31.227009922384063 110 104 106 1.9142680784873929 4 56 1 48 2 25 3 64
7 -10.857622731348345 5.1465130412939395 30.608319967373344 147 166 173 1.4609364398609845 4 52 1 47 2 41 3 69
6 -11.18238418816768 -4.198987721953619 28.895377805433817 179 207 218 2.5656342127438636 4 37 1 43
546 14.235968497593324 0.3366281452124725 49.7360350318429 130 157 166 0.03636814324412824 4 1953 2 2697
4 -9.230430192973682 2.989881634162315 30.38280403258085 159 186 197 0.8211766046663022 4 29 1 26 2 20 3 33
3 -11.180438570989327 3.0703951132816574 29.024513877540006 158 186 198 1.1071995006664714 4 24 1 32 2 21
544 -18.350024981412556 -15.627489717535662 44.56195803076865 46 52 72 2.1533030178986894 1 2843 2 2635 3 2551
2 -7.442778880757097 9.275370369617118 29.659349327276065 158 178 185 0.9217040508664646 4 17 1 12
543 -1.6548418425177827 -14.024957080855751 38.92057537244742 251 250 247 2.131032427382217 4 2648 2 2614
542 -17.009040808632406 -15.62422290991307 45.04114665168884 112 130 138 0.49396311940264687 1 2842 2 2609 3 2594
14 -9.834914723505827 1.0984759608178163 29.15987695366465 157 184 193 0.7891589047645429 4 99 1 105 2 77 3 144
15 -9.306373946565213 1.4155331752593734 29.684704098718363 129 113 114 1.3407551546486445 4 101 1 107 2 80 3 138
16 -10.366413594046657 1.5632484325340343 28.589022698991993 125 109 112 1.0084825299217184 4 103 1 109 2 81 3 117
17 -8.892520108815527 1.8688238941647115 29.755970532507487 168 189 200 0.9687736617829714 2 91 3 187
18 -9.450209357856897 3.7938113393303095 30.421607622891436 165 189 201 1.5829247151279222 4 110 1 121 2 61 3 147
19 -12.2006847625621 -15.612756036764667 39.19256849958586 103 92 98 1.7685623934077237 4 119 1 65
20 -16.65072707961633 -14.204754185540025 45.26100807640189 157 195 205 2.5716362627708618 4 124 1 135
21 -10.052851482603144 -3.906319033513916 28.298309049366864 179 208 212 0.25726224063614234 4 134 1 182 2 99
22 -11.379308255094593 -15.226156268863205 40.842079274314486 138 161 164 0.1662223777626441 4 147 1 159
23 0.684717174412343 7.73247098681658 34.53656882605069 158 175 185 1.8983133665072565 1 171 2 122 4 150
24 -8.863373639201102 7.88086961342635 31.035689953908598 55 54 72 0.49108821165090294 4 151 1 170 2 121 3 181
25 -10.771148664869402 2.2635176935493995 28.985730320132465 157 185 202 1.2823341897547758 4 157 1 167 2 82 3 189
26 -10.465288762509905 0.9952586729046274 28.39657940885447 190 215 222 1.4769145165317348 4 159 1 164 2 130 3 194
27 -8.970724443065844 8.370954299350524 30.61590592420919 104 121 129 1.932891218012404 4 162 1 185 2 75
28 -9.999294506010514 7.578888448537614 31.180259752534955 51 47 62 0.24077876816736288 4 168 1 243 2 84
29 -17.71397529763274 -15.470286895743277 43.65592568214113 105 119 125 0.43836998104532543 4 171 1 186 3 171
60 -11.638583249856428 7.803929595645011 29.907519068675345 49 52 66 0.363310503946793 4 346 1 295 3 183
61 -13.795144724914358 -0.8469577164491616 50.8913463876914 114 71 66 1.4839869078797894 4 362 1 229
62 -8.745205056008528 -0.37858568173090995 28.987529813190335 172 199 206 1.4854200287742163 4 363 1 314 2 205
63 -11.242857985256316 -4.406735193187571 28.197738127532656 200 235 237 0.49546965455450714 4 390 1 601
64 -7.247805454592548 10.018242342776173 25.47392982049232 160 180 187 0.7821308308764094 4 398 1 410
66 -23.767932128086976 -6.388104230079891 38.98434766582432 135 159 169 0.39375502475974694 4 401 1 600 3 623
67 -12.241504518066852 6.542797372176675 29.793732164667453 148 168 175 1.3095294537578486 4 405 1 1182 2 772
68 -10.208815132862423 4.711999167106131 30.77331598985989 108 99 98 2.3428651308864974 4 407 1 758
69 -11.690856678888323 7.680024436069349 29.39881561187393 192 223 225 0.15261823259032722 4 420 1 407 3 530
70 -11.01248156792935 -1.4011556613275236 28.21984155490246 142 162 167 1.3651899504759977 4 421 1 876 2 297
71 -13.45349977406335 -2.225127911737011 51.81036628977642 114 131 139 2.3763682435595443 4 425 1 311
72 -11.542397754228833 -6.805236320661059 28.901174458543952 86 100 111 1.4682202252924006 4 429 1 505
73 -13.950658970640346 -12.435826056307421 41.18736455990486 77 79 73 1.0829534580098474 4 441 1 2553
74 -22.595531989401955 -7.08284357619201 39.772530628937965 77 97 103 0.7997379514485413 4 449 1 468 3 616
75 -21.595890481479042 -7.202796596778782 40.24617425136281 158 188 200 1.2909592532661374 4 450 1 469
77 -20.50832466184512 -14.629400339387457 36.05199508590714 138 163 168 0.14947635355860428 4 470 1 1086
78 -17.322869435651388 -14.727335644452895 44.254235800025384 133 152 165 0.15717129598550614 1 305 2 300
79 -20.52652013318916 -14.962126907689436 39.87739207091179 97 112 121 0.33742074412914597 4 502 1 516 3 631
80 -10.312054351145921 1.7638436246681564 28.453131473332917 108 96 100 0.7205777014308712 4 522 1 781
81 -8.917680314472094 1.614773246279849 29.71827075344673 146 165 179 0.9031488089581559 4 524 1 544
82 -0.9909669357115717 9.974946060146635 26.729533233173232 177 200 206 0.2125781551145986 4 529 1 563
83 -11.526374723169747 8.825525402091248 28.531352199138823 140 164 169 0.7023071732308496 4 530 1 570 2 353 3 750
84 -2.593346723124241 8.772354579294744 30.460351471869934 159 188 192 0.7087726720915772 4 532 1 568
85 0.384897940125807 8.279815458344238 33.22475353634294 157 177 184 0.13785461387921347 4 539 1 408
86 -9.49119626306943 7.412842355338329 30.968490138590745 186 216 216 0.4723706491326107 4 541 1 406 2 335 3 529
87 -11.950715872099021 6.911530494949334 29.36930019630327 153 170 180 1.75592646990883 4 542 1 575 2 337
88 -9.457700193259251 6.337099118041815 31.348720399730396 148 165 172 1.5058052605405803 4 543 1 577 2 330 3 657
89 -8.544046488168494 -0.5258307256342493 29.71734604206525 159 178 182 1.0138992662270003 4 549 1 1317
90 -11.234678730625209 -1.0939684606589888 27.871784078809753 159 184 189 0.026316592923110428 4 555 1 583
91 -10.092452006036783 -4.124899132765433 28.31329088997247 188 211 217 0.18440863897067952 4 563 1 839 3 815
92 -10.676629409637322 -3.435458117505713 27.908881607037955 187 218 223 0.6987939346335719 4 567 1 594 2 267 3 723
93 -10.460119219542175 0.5404035820582342 28.597406194289153 96 107 117 0.8141288436663284 4 571 1 393 2 367 3 498
94 -9.168149695863105 0.37705329112708275 29.40302759723854 180 205 212 0.7564603164868355 4 575 1 605 2 545 3 732
95 -9.485811566854887 -5.047906102218106 27.809085344580605 136 125 121 1.2779900323179152 4 594 1 640 2 477 3 1065
96 -10.037091999251777 -6.069714274372474 27.60095196743888 144 137 129 0.43998905399782506 4 597 1 645 2 479
97 -10.709904162348105 -4.361359978668867 28.200397786061025 172 200 203 0.9892007177159067 4 612 1 996 2 269 3 1109
98 -6.121608751328061 -6.630892170852327 44.09174710777413 107 75 88 1.9292564683687372 4 613 1 647
99 -7.304169144220054 -16.265994989754653 45.2673889121552 78 65 69 0.4623679058208293 4 636 1 708
100 -13.331054321727395 -15.358909784652871 37.12284722239025 104 94 92 2.422654008781532 4 651 1 528
101 -8.458793859970152 -15.637788125310566 38.45542985032708 96 85 81 2.0680038212554477 4 652 1 489
103 -20.505314281115563 -12.863810502543542 41.36444560144128 249 255 255 0.12839270815767884 4 668 1 740
104 -19.667658038018438 -14.860485633266736 41.35548551107012 71 70 86 0.43102679288806617 4 686 1 1256 3 915
105 -10.034699492177761 7.327288721138231 31.139555472744757 126 125 118 1.1236038371797092 4 691 1 1709 2 333 3 2094
106 -10.167134602832867 6.919228627365559 31.427664322697023 120 114 116 1.7310766791332777 4 692 1 2240 2 496
107 -10.240166173828671 6.312131988351592 31.40744431068692 119 112 114 0.46815972928743 4 696 1 761
108 -9.415999276893244 5.076089079746276 31.60084373050026 143 161 163 0.4226558265053263 4 700 1 536
109 -10.174673956260518 3.908067693337495 30.454215973906233 152 170 180 2.034606280376671 1 1885 2 1705 4 705
110 -10.230134029898755 1.2063792442603583 28.45343825893971 115 104 112 0.7956270793990761 4 714 1 549 2 753 3 770
111 -9.702786604988177 0.9185736663174362 29.27742766730979 160 189 197 0.07072732076181054 4 715 1 771
112 -6.978478922745152 10.03179747305469 25.380206946195354 155 90 116 0.6278731704555035 4 717 1 1031
113 -17.10375261758154 -13.584569329925221 45.10007446736343 143 163 172 1.9745778019206899 4 720 1 738
114 -7.286235579450107 10.172678146428739 25.351276097638216 160 90 119 1.026529258931833 4 730 1 1202
115 -6.556772901387527 10.040921792696718 25.768598795343756 156 185 189 0.6774681996659107 4 732 1 786
116 -1.82335037631485 9.829176679637461 26.701193224440363 174 203 209 0.5766221693732106 4 734 1 559
117 -8.363436651842536 9.634693607689668 26.116336490516108 167 187 194 1.2264052211276493 1 816 2 510 4 736 3 907
118 -2.127214150691754 9.71602152921954 27.53277811436225 173 206 208 0.2784911561819128 4 737 1 794
119 5.898228079048784 8.796880885648061 32.125879825037146 159 179 190 0.5110479572140372 4 741 1 813
120 -1.04544049098822 8.572461463177932 31.637327157893548 173 178 181 0.9185361318130262 1 808 2 770 4 742
121 -8.46032141340167 -2.0551968545987713 29.89577747740736 168 180 194 0.3264483559640288 4 747 1 845 2 616
122 -10.919514289348934 -2.9333637943227546 27.827478991129734 186 206 215 0.8474190675637805 4 753 1 819 2 411 3 1710
123 -8.970414403446416 -3.8762325397823867 28.910807594200673 209 240 245 0.4587101469528986 4 758 1 821 2 572 3 1014
124 -5.461773330712975 -5.442137671619865 39.81509652178305 111 68 80 2.5691471075681838 4 766 1 828
125 -10.850084746296602 -0.1862870375427704 28.136983945064294 172 199 204 1.3393149371887565 4 773 1 613 2 810
126 -9.167460488986553 0.551996313804995 29.504053763943293 86 102 110 1.6311491233635487 4 776 1 499 2 884 3 540 3 1775
127 -8.989352610396363 0.4309087667589041 52.875302161983825 119 134 137 1.5572576877901567 1 1295 2 419
258 -11.050136060046828 4.49243717024492 29.992321244950706 137 154 162 0.9423617361229517 4 1665 1 755
259 -10.202448442785622 0.9360083843446185 28.531061765638427 133 153 163 1.224569061859952 4 1684 1 1342 2 1638 3 2396
260 -10.857768337859191 0.38471217397820556 27.878785860132417 185 210 217 0.06532213591117655 4 1688 1 1913
261 -8.811555295542593 0.19495674849062933 29.663065841652315 179 198 205 0.22088741683820656 4 1691 1 1291 3 1320
263 -10.242825807194006 1.05270269526003 28.473714458739295 185 207 215 0.8388506274316572 4 1708 1 1299 2 1133 3 857
264 -8.915283496806278 -0.5638860011824461 29.907561276827632 161 183 189 0.44770371531792574 4 1716 1 1791
265 -8.509906533727063 -1.7379045404690991 29.964981167797976 137 151 152 0.07278994214834045 4 1729 1 2101
266 -11.189298884071693 -1.613868285486577 27.984868760763277 178 198 199 1.3253786267988004 4 1730 1 1237
267 -7.5063445561279885 0.18498376458090962 11.945391184053515 163 187 199 0.7015035882520225 4 1738 1 1799
268 -10.270399256472098 1.3155998690174253 28.380094068660238 149 137 137 1.6401755520383916 4 1742 2 1940
269 -8.72051959473089 -0.3667896512370449 29.960456121997815 163 176 184 0.24373581751448664 4 1748 1 2195
270 -8.714751686660678 3.473409812923241 30.912555310485587 180 206 217 0.8921667154608092 4 1755 1 539 2 382 3 870
271 -10.357664981080491 4.052560167904443 30.458416972674744 141 166 169 0.5005269733714295 4 1779 1 1883
272 -9.570148822598185 1.7883983484091637 29.707748085687804 123 141 152 0.3342533179568946 4 1798 1 1922
273 -10.14510263235848 1.6096659854108588 28.265724543956377 141 122 126 0.7488965436073478 4 1801 1 1308 2 1625
274 -10.041586908922365 1.5892860418958423 28.317239636702553 100 81 83 0.45564762445111406 4 1804 1 1307 2 1146
275 -8.80181450896268 2.278795547414771 30.669452023571118 164 193 199 0.2107333706121451 4 1823 1 494
278 -11.526999910392247 -3.321312471649789 27.748211980206133 194 225 227 1.6453613610398168 4 1865 1 1835 2 999
279 -9.809075653641568 -3.6227712373674725 28.171578446516435 203 230 237 0.24744069723024703 4 1869 1 1278
280 -4.983855575370032 -2.7844013689530183 22.342252514939524 109 119 120 0.32929782468260105 4 1870 1 1832
281 -11.074667720351691 -3.85633317135891 27.780655821957144 147 180 187 0.3887472316310828 4 1875 1 2032 2 1737 3 1409
282 -11.05370356712759 -3.074031973063383 27.834011393369337 145 170 175 1.0627944836119407 4 1880 1 3027 2 1269 3 1921
283 -11.604904271840718 -2.244391355227192 27.662406863242566 151 179 183 0.17119754896311284 4 1891 1 2044
284 -9.651231063634963 0.6611908812794038 29.391842556832 139 155 168 1.228959470916993 4 1895 1 3102 2 3067 3 2950
285 -9.41962962848131 0.8682646826281891 29.53998532764849 118 138 144 0.7162273847776954 4 1896 1 3126 2 1958 3 1783
286 -12.318884762319577 1.1343751438094356 48.13196036410003 166 189 194 1.4649296457056848 4 1898 1 3128
287 -9.379918657546838 0.9560442260949851 29.565660804213934 165 183 187 0.38148398192142946 4 1927 1 1947 3 1680
288 -19.965470876970443 -6.857317677032341 36.43422048859847 162 191 195 1.822978225972406 4 1934 3 1365
289 -5.919451198340275 -0.29666557302753366 46.90095638275017 154 179 183 2.270355889890727 4 1940 1 1535
290 -10.368567518168897 0.4910631000963891 54.22237497068656 155 180 187 0.7009293197108479 1 1975 2 2738
291 -20.775220470272934 -11.885621051323163 41.7551868347829 156 196 189 2.0055569579272325 4 1982 1 2672
292 -18.05366877909986 -14.183043454571827 44.4528835900391 76 86 98 0.006631323186702351 4 1988 1 2598
293 -23.64185632049426 -6.867461542131654 38.11040807410403 118 137 153 0.8281766786682919 4 2030 1 1452
294 -21.37482491386218 -7.48517773645411 40.55305923613325 138 167 172 0.2442474771579978 4 2036 1 3073
295 -22.452278608867577 -6.546858006044401 39.058622509948215 153 178 184 0.20680693757216018 4 2054 1 3092
296 -22.38987736590879 -6.833194478703091 40.12363361737153 112 140 148 1.0194274975552424 4 2056 1 3097 3 1858
297 -21.96728592975784 -6.89471684727999 39.620927359461604 152 181 185 0.10713944692789107 4 2062 1 1449
298 -12.161581544378123 -5.04702951068971 22.201334708273748 143 170 177 0.7926611547616009 4 2064 1 1450
299 -21.218046698585834 -9.999178793830382 40.287081547885556 141 164 170 3.2619442840169803 4 2075 1 2643
300 -9.045290119098555 -6.003372142529096 27.768400841247885 122 117 121 0.6141894027950228 4 2081 1 2175 3 1352
301 -9.874978001026255 -5.884751397081034 27.379320914070217 146 140 137 0.8935211234901387 4 2082 1 2655 2 2536
302 -8.994779028213275 -6.005781672775912 28.061454708415813 122 118 123 0.5729001063313216 4 2084 1 644 3 453
304 1.559159349138196 9.663153212083841 29.50666374759749 146 169 175 1.258297764389272 4 2101 1 2132
305 8.595007392087524 9.567204188901794 32.05689121012817 156 169 181 3.1605758519675424 4 2110 1 1725
306 3.1066047327811037 9.806015899440848 27.805779879712833 146 169 177 0.2038785700209698 4 2118 1 2112
307 -1.5321853296204868 8.628414144889996 30.91472139136557 160 182 184 0.3355625715536622 4 2131 1 1765
308 -12.077067616583355 8.567559168622127 30.34464378091021 50 54 66 2.2125455090530664 4 2134 1 2965
309 -5.22771934211431 -7.313972787474298 44.7039964471668 118 136 136 1.054833366842748 4 2135 1 3060
310 4.5542569765137815 7.866676403256261 31.285178040441664 160 185 185 1.9523799400771484 4 2142 1 1768
311 -12.241783163533295 8.015340121911692 29.354427139899034 64 76 98 0.5127507837263737 4 2145 1 3007 3 3257
312 -11.828085119529213 8.245485941366736 30.473103799390305 132 148 147 1.1990526387026805 4 2146 1 1348
313 -1.6506092649906428 9.914255519960996 26.792941466947834 180 199 206 0.5857743097329058 4 2147 1 1750
315 6.268503695814631 8.299691010399274 30.33573107067772 162 181 190 1.2758706857349755 4 2151 1 2946
316 -1.0540208665991062 8.738139137933421 30.37905734539731 148 172 176 0.8892909138605637 4 2154 1 2258
317 -2.4047453012173685 8.37927262700231 27.710283841523392 160 180 189 1.5147931441105702 4 2158 1 2945
319 -6.329359994589114 9.986547703898797 26.255966739990214 156 178 177 0.7993248004436317 4 2213 1 1716
320 -23.454112530128473 4.058491849017562 39.95197014548025 129 143 144 0.19718464375472983 4 2242 3 2316
321 -10.69969484511515 4.056870841068705 30.191849395061006 38 44 71 1.140956195111145 4 2251 1 1882 2 1120
322 -8.66579008904027 3.8158792068168377 30.83560738253414 38 52 93 0.5548830109743939 4 2263 1 2221 2 1702 3 1218
323 -10.65489290829156 1.4463347547069694 28.23777240026034 102 101 114 0.5438139112242438 4 2275 1 2008 2 1607 3 2299
324 -9.596209070047614 7.589810777671571 30.916905290852068 171 189 188 0.15198539349631737 4 2297 1 2214 2 1518
325 -11.658947558277031 7.58587358281316 29.55555059855423 148 174 178 0.3612512884145714 4 2299 1 2216 3 2087
326 -11.712369849589097 7.658490701203529 30.27105627100664 55 61 72 2.034061903702206 4 2301 1 2198
327 3.164061140407624 7.676332807231162 32.708007676086304 160 173 185 0.883991573761754 4 2303 1 2972
328 -9.228052403250905 7.700388351119999 30.903462622819394 153 170 168 0.41682346646623475 4 2305 1 2219 2 2437 3 1688
329 -9.30339326079579 7.425680301967565 31.206314670300006 65 92 124 0.4323368674951876 4 2310 1 2205 2 1698 3 2118
330 -9.670281807395826 7.336742392249617 30.98507653907098 147 167 167 0.47555793991930617 4 2312 1 2204 2 1699
331 1.8984446642934039 7.776556179529253 34.742845991666734 136 106 130 0.5056497826247293 1 1648 2 2991 4 2313
332 -11.92684905705451 7.685231915366278 29.475618021508815 70 78 103 0.3806396801959343 4 2318 1 1659 2 1048 3 2088
333 -11.996088733895606 7.666592673000671 29.26359006561539 184 212 216 0.799005893790239 4 2320 1 2979 3 2070
334 -11.996024252271342 7.763874777416842 29.350757074772385 96 129 138 0.2502302766599429 4 2326 1 2231 3 2089
335 -1.3491321472579987 6.835904546565553 35.94955989512916 134 111 132 1.026110724755389 4 2333 1 2857
336 -11.408864046206915 6.002634815974806 30.02179130706672 109 114 112 2.1486513992734024 4 2334 1 404 2 1674
337 -9.40616463037349 4.509143976291454 31.314533446843154 152 162 158 1.6343844290230547 4 2342 1 1690 2 1124 3 1595
338 -11.832325204574875 4.184045675019094 29.251151657212425 46 60 100 1.2494203290881127 4 2346 1 1694 2 1125
339 -10.504036521440655 7.128093158087627 31.509944559875503 156 173 181 0.9524262495483541 4 2353 1 2866 2 3030
340 -10.44389839525838 7.181798131677738 31.626765806072882 60 57 83 0.509106636018833 4 2356 1 2241 2 1693 3 1671
341 1.2357598208327087 7.656663587214704 35.30776700678557 140 102 130 0.167554758497297 4 2358 1 1642
342 -0.014040178618712693 7.6193874710302 37.274509551391276 141 112 136 1.315009969836059 4 2370 1 1703
343 -9.767935572116649 9.528265834818315 27.301180704325386 137 156 163 0.6853226739135145 4 2438 1 2187
344 -0.8026243120512507 9.814895990213868 27.304904632163968 132 159 166 0.4828245256162981 4 2445 1 1720
348 -9.48587053991606 7.684575326346805 30.854895288953816 160 179 183 0.5395116613834016 4 2501 1 2218 2 2433
349 -17.37072372996225 -15.307470111438962 43.47080816342159 118 135 142 1.4141982235738553 4 2511 1 1391 3 2474
350 -17.899823572945674 -15.619630942451657 43.54002346677251 118 136 146 0.6090922037540608 4 2534 1 2130 3 2465
351 1.3466355498483513 7.561483009379494 34.296210240166616 167 181 192 0.46254040217228826 4 2560 1 1649
352 -7.282663084509448 -16.32890960575723 44.92075699395783 95 81 86 0.7882272620135983 4 2604 1 2411
353 -11.195262198047963 -16.023182319559375 39.799187410322006 73 67 67 2.6227127490971913 4 2612 1 2128
355 -19.588348410604922 -14.475847781478475 36.485809439119926 102 127 132 0.7237492543298276 4 2661 1 2722
356 -9.501424881970124 -3.6498269069829354 28.552452260032425 124 159 163 0.38994607566682465 4 2680 1 3032 2 2576 3 3190
358 -8.182170606054015 -3.6820184099055138 29.789758854079437 103 120 128 2.3881630257852553 4 2686 1 3029
359 -9.399988182473137 -3.6718302756968604 28.605826194394815 212 241 247 1.6219318445274318 4 2694 1 2035 2 979 3 1839 3 3189
360 -11.112835644943825 -3.792331458275647 27.690005265170694 190 219 230 0.2766184266908771 4 2702 1 2033 2 1254
361 -15.011988772636297 -15.229067386347243 35.810326823174364 88 85 77 2.9197173991745298 4 2736 1 2592
363 -19.0933638762011 -5.766248207283238 34.50891771037974 148 171 179 0.7156546557954109 4 2756 3 2688
364 -12.253293336873064 -14.63949523391435 35.596071212774376 85 70 76 0.8599755745945418 4 2761 1 1078
365 -11.273473644291245 -14.27902828449006 34.35679122276217 254 251 253 0.07557908152919166 4 2773 1 3164
367 -22.837342761822168 -6.402422923964384 38.0586084549647 162 189 200 0.4331726292903989 4 2798 1 1445
368 -10.350376364414963 -5.790827018221075 27.890141136426305 114 95 97 0.3500930393403145 4 2806 1 2472
369 -4.701333257429373 -7.249464679475155 40.16052301042981 120 142 147 1.8072717827958424 4 2835 1 1425
371 -9.843812624730788 -11.301385690109093 42.43615214951401 76 85 94 2.1242036807891536 4 2886 1 2985
372 -21.014263571007827 -9.614416476196956 41.077452612203395 124 151 162 0.8079412499155195 4 2913 1 1478
373 -22.112300272907504 -7.0354034036002515 39.4475013584047 148 181 182 0.5174528880073286 4 2969 1 3062
374 -5.44694731514172 -13.55546823688044 38.62091759913955 141 151 153 0.2349383179100895 4 2970 1 509
375 -14.04132007932659 -16.587561547761332 49.425552189843835 98 111 120 1.5459346297090457 4 3003 3 633
376 -4.999785384548316 -7.749409166550425 44.99606591683513 120 134 133 1.6846368970013734 4 3031 1 3070
377 -11.519982093510212 8.12739548309928 29.59772694999336 143 147 152 0.8289482654193359 4 3035 1 2274
378 -9.552104677387769 8.03742196934249 30.767911780518183 82 92 102 1.0633896093607453 4 3039 1 3171
379 -11.99047308968568 7.844525251354028 29.34512749430374 186 214 202 0.4348730555926217 4 3040 1 3019 2 2394 3 3266
380 -12.097857926316719 7.915313635220231 29.413274588554042 97 102 130 0.2263905617204288 4 3042 1 2266 2 2185
381 -11.96808576877603 7.905713960671552 29.303590395855107 76 98 125 0.3452010193389996 4 3044 1 3011 2 2184
382 -11.758824544771484 7.902028766652928 29.29369097845997 188 209 206 0.43381801778180973 4 3045 1 3009 2 2186 3 3270
383 2.113091720473026 8.67520026677915 31.58408391789974 146 169 177 0.10987925697265097 4 3064 1 2260
384 1.9065460664888902 7.83413550596459 34.67552411082207 158 180 186 0.18685014935768646 4 3066 1 2885
385 -9.366973268208536 7.430743250203314 31.142207147138677 173 210 211 0.38494667836932467 4 3068 1 2889 2 3041 3 2101
386 -9.244747697231112 7.505854730370718 31.147381426922465 181 220 211 0.5157630916890215 4 3069 1 2878 2 2419 3 2169
387 -9.16333166364664 7.5246409606252005 31.177680086075668 67 96 119 0.43682519283723115 4 3070 1 2211 3 2170
388 -9.450333169363256 7.521423007808119 30.934965781346484 181 206 205 0.804219474635556 4 3072 1 2212 2 3050 3 1683
389 -9.350923897029954 7.551919135622037 30.991200391033214 72 80 97 0.5895962606351268 4 3073 1 2877 2 2413 3 3247
390 -9.324075645683415 7.606545722487476 30.912688551696643 177 196 202 0.5288113063413714 4 3077 1 2995 2 2430 3 2171
391 -12.17388513032618 7.66681102850471 29.531569681202438 93 117 123 0.3319796978080013 4 3084 1 2997
392 2.2406526825663957 9.515594021541178 28.303345185574663 170 194 198 0.3599253370530126 4 3098 1 2150
393 -8.066228315097451 9.837003183326273 25.752677066445077 165 185 192 1.1766389233483396 4 3114 1 2140
395 -23.842374135313037 3.750374734062897 38.885063902467394 100 115 118 1.3845669707313681 4 3166 1 1864
396 -10.39006921900884 1.3518016860016033 28.20719947218433 156 146 144 0.968913237027451 4 3185 1 2005 2 1616 3 2297
397 -2.4867736141885644 0.6840810931056609 6.629614271441832 108 132 132 0.45589316151567116 4 3202 1 2009
398 -21.396889836233907 2.8348262678607097 43.82717841933642 69 87 97 0.4516608622830655 4 3206 1 2916
399 -9.56795528606717 4.530630027004677 31.23733393157602 107 105 111 0.8118233706560085 4 3213 1 2125 2 3078
400 -12.324707763189215 5.277419217405624 29.909367709094823 128 137 136 1.5116022393724888 4 3222 1 750
401 -0.7601262815302995 7.059705714845471 36.409065897143165 167 181 179 0.2877671792840747 4 3231 1 2209
402 1.3232872914450076 7.8426401171043185 36.37291667905363 161 175 182 0.960952921098454 4 3238 1 2268
403 1.511258875896611 7.633735993347831 34.689795474218855 136 105 127 1.0799529660623055 1 1650 2 2990 4 3240
404 -8.061953622345674 -0.9671802421126586 30.41890930765339 169 187 197 0.4670856731894328 4 3387 1 1311 3 1008
405 -19.496702650546272 -14.645376475270087 37.093489221080254 101 124 130 0.6611986473956776 4 3444 1 2310 3 2160
406 -16.736648112141445 -14.261039337420545 45.54977820581091 136 166 184 2.6791320087133883 4 3455 1 2560
407 -10.719908183200658 -0.5041666185599039 27.953335730633498 170 190 197 0.4582368254626665 4 3460 1 1792
408 -10.677725183187544 1.2635774854888797 28.804280098322305 140 136 138 2.760427203444763 4 3480 1 1929 3 2914
409 -12.836529967241766 -1.732621172938485 49.59374870324728 90 107 114 2.2980645047424537 4 3492 1 2071
410 -20.82793084005504 -12.879952831727396 40.22221931943779 120 139 146 1.6789997850113396 4 3517 1 2558
411 -9.01062728687481 0.2923855406782738 29.666650515724196 138 158 167 0.3926525882668677 4 3537 1 3114 2 2489
412 -9.686438568253893 7.7306051797198405 30.961828695069727 44 42 60 2.1449436672829867 4 3550 1 2983 2 2435
413 -9.00944965501716 -5.905934294157373 27.891207720799372 96 90 93 0.9912064950441234 4 3551 1 2987 3 2068
414 5.012601648716818 8.302971834336882 32.37047210801454 161 183 189 1.8429780499205892 1 2255 2 1844 4 3557
415 -1.06494473263946 8.45342429696779 32.013307006655495 166 183 190 0.822331017132666 1 2249 2 2989 4 3558
416 -6.275777778201703 -9.316900958936255 59.23670396393482 115 133 137 1.617254499742738 1 23 2 18 4 21
417 -9.98306447573 6.18799865886384 31.425042107071597 124 122 123 1.3205785461348842 4 76 3 100
418 -4.2722191656103305 -4.87636939569122 61.37100146433693 143 168 175 0.017183298174647216 2 46 4 79
419 -17.66484873029339 -17.017701861881235 58.233530622437485 104 123 137 1.0945476799678304 4 126 2 52 1 132
420 -4.34141772325558 -1.3085121468838652 60.618023314525544 97 52 72 1.0284615690025454 1 99 2 57 4 93
421 -12.12161450384872 8.293272072933433 29.145869001354015 59 60 78 0.964085064350126 4 156 2 85 3 182
422 -4.307497197195196 -2.870256093790239 60.2816785999208 102 48 74 1.014942889395644 1 93 2 88 4 98
423 -3.1536957096069957 -1.8000210522557107 60.73953062958695 142 157 167 0.6928794514571743 1 98 2 90 4 97
425 6.917135117857316 -16.48845884281454 49.1735538530167 142 159 169 1.590129594940877 1 63 2 95 4 122
426 -10.221615690765738 0.17204089231367523 28.612799804323775 174 204 212 0.7460383018903934 4 223 2 104 3 204
427 7.179970818855594 -15.885519258008038 50.34123783428334 136 153 161 1.4111956827667334 1 156 4 190 2 160
428 6.471436899138602 -16.15408182842855 50.45736547163605 77 87 97 1.6551730924991004 1 219 2 161 4 191
429 -5.686877166511359 -16.484415130387735 46.36872011129467 87 80 85 1.3540646893876265 1 216 4 194 2 163
430 -0.7190577807030618 -0.6487203447549232 60.35137614037567 91 89 92 0.7710795981203354 1 316 2 202 4 273
431 -4.004710441484399 -16.315786322265286 48.58952679379724 136 150 158 1.318672260087564 1 157 4 192 2 210
432 8.5465415261665 -16.151281409247648 52.15535116803525 132 149 157 0.8675787685400026 4 252 2 213 1 220
433 -8.07743935882452 -2.5000520085349924 30.076901830140436 171 200 208 1.067522883564937 1 246 2 218
434 -9.477945510762153 -4.337156247844443 28.92511077924556 130 126 127 0.6091361191034113 4 288 2 223
435 -10.587351992167344 -9.165215586015888 53.712102604237145 106 128 133 0.7132784187805278 4 335 2 321 1 347
436 -8.798067151517344 -7.774036142533265 49.536572199807516 104 132 130 0.4740937705892052 1 418 2 325
437 -11.707478934963492 6.635887734811973 30.17636632581771 121 116 122 1.7149334780687937 1 576 4 1195 2 332 3 2076
438 -8.68085390134861 -0.5656126715765218 14.073562210116343 103 91 98 2.4183320517864675 1 3053 2 338
439 -8.487069976614181 8.431665665114421 30.32290036030411 159 179 186 1.1502627148826328 4 535 2 342 3 753
440 -12.587545471792636 8.256522827375377 29.275618397627493 142 162 173 0.8977906114589242 1 574 3 747
441 -10.255525231886176 5.881823128154942 31.077121826583138 114 114 114 1.8468027790564356 1 2884 4 811 2 360
442 -6.408483102178246 -9.26808007350481 58.15247078316248 113 132 138 0.614150006267004 4 427 2 393
443 -4.744120962135577 -3.7928665960814105 60.47564263773194 130 148 158 1.4981559901975414 4 1114 2 436 1 1338
444 -8.662745726394304 4.925235677677477 25.438702402070167 148 168 169 0.2588331319180712 1 1180 2 438
445 -13.68944792004328 -15.23024344970072 55.27078310062198 64 76 88 0.4475441749097513 1 275 2 450
446 6.888340638576267 -15.73309109426393 51.01105799962882 108 121 127 1.6050043829710294 1 508 4 489 2 459
447 -10.276768561746293 -3.4186513196104924 28.12311565017887 178 207 215 0.23617462918513907 1 593 2 463 3 725
448 -10.999007630695017 -3.660421581676771 27.77352151658562 183 211 222 0.4220308361442082 1 1276 2 465 3 1016
